ncols 451
nrows 25
xllcorner -9455199.24925
yllcorner -12726948.6585
cellsize 15654.303393
NODATA_value -9999
823.742 823.736 823.730 823.724 823.717 823.711 823.705 823.699 823.692 823.686 823.680 823.674 823.667 823.661 823.655 823.649 823.642 823.636 823.630 823.624 823.617 823.611 823.605 823.599 823.592 823.586 823.580 823.574 823.567 823.561 823.555 823.549 823.542 823.536 823.530 823.524 823.517 823.511 823.505 823.499 823.492 823.486 823.480 823.474 823.467 823.467 823.467 823.467 823.467 823.467 823.467 823.467 823.467 823.467 823.467 823.467 823.467 823.467 823.467 823.467 823.467 823.467 823.467 823.467 823.467 823.467 823.467 823.467 823.467 823.467 823.467 823.467 823.467 823.467 823.467 823.467 823.467 823.468 823.474 823.480 823.486 823.493 823.499 823.505 823.511 823.518 823.524 823.530 823.536 823.543 823.549 823.555 823.561 823.568 823.574 823.580 823.586 823.593 823.599 823.605 823.611 823.618 823.624 823.630 823.636 823.643 823.649 823.655 823.661 823.668 823.674 823.680 823.686 823.693 823.699 823.705 823.711 823.718 823.724 823.730 823.736 823.743 823.749 823.755 -340282346638528859811704183484516925440.000 823.761 823.761 823.761 823.761 823.761 823.761 823.761 823.761 823.761 823.761 823.761 823.761 823.761 823.761 823.761 823.761 823.761 823.761 823.761 823.761 823.761 823.761 823.761 823.761 823.761 823.761 823.761 823.761 823.761 823.761 823.761 823.761 823.761 823.761 823.761 823.761 823.761 823.761 823.761 823.761 823.761 823.761 823.761 823.761 823.761 823.761 823.761 823.761 823.761 823.761 823.761 823.761 823.761 823.761 823.761 823.761 823.761 823.761 823.761 823.761 823.761 823.761 823.761 823.761 823.761 823.761 823.761 823.761 823.761 823.761 823.761 823.761 823.761 823.761 823.761 823.761 823.761 823.761 823.761 823.761 823.761 823.761 823.761 823.761 823.761 823.761 823.761 823.761 823.761 823.761 823.761 823.761 823.761 823.761 823.761 823.761 823.761 823.761 823.761 823.761 823.761 823.761 823.761 823.761 823.761 823.761 823.761 823.761 823.761 823.761 823.761 823.761 823.761 823.761 823.761 823.761 823.761 823.761 823.761 823.761 823.761 823.761 823.761 823.761 823.761 823.761 823.761 823.761 823.761 823.761 823.761 823.761 823.761 823.761 823.761 823.761 823.761 823.761 823.761 823.761 823.761 823.761 823.761 823.761 823.761 823.761 823.761 823.761 823.761 823.761 823.761 823.761 823.761 823.761 823.761 823.761 823.761 823.761 823.761 -340282346638528859811704183484516925440.000 823.755 823.749 823.743 823.736 823.730 823.724 823.718 823.711 823.705 823.699 823.693 823.686 823.680 823.674 823.668 823.661 823.655 823.649 823.643 823.636 823.630 823.624 823.618 823.611 823.605 823.599 823.593 823.586 823.580 823.574 823.568 823.561 823.555 823.549 823.543 823.536 823.530 823.524 823.518 823.511 823.505 823.499 823.493 823.486 823.480 823.474 823.468 823.467 823.467 823.467 823.467 823.467 823.467 823.467 823.467 823.467 823.467 823.467 823.467 823.467 823.467 823.467 823.467 823.467 823.467 823.467 823.467 823.467 823.467 823.467 823.467 823.467 823.467 823.467 823.467 823.467 823.467 823.467 823.467 0.000 823.474 823.480 823.486 823.492 823.499 823.505 823.511 823.517 823.524 823.530 823.536 823.542 823.549 823.555 823.561 823.567 823.574 823.580 823.586 823.592 823.599 823.605 823.611 823.617 823.624 823.630 823.636 823.642 823.649 823.655 823.661 823.667 823.674 823.680 823.686 823.692 823.699 823.705 823.711 823.717 823.724 823.730 823.736 823.742 823.749 823.755 823.761 823.761 823.761 823.761 823.761 823.761 823.761 823.761 823.761 823.761 823.761 823.761 823.761 823.761 823.761 823.761 823.761 823.761 823.761 823.761 823.761 823.761 823.761 823.761 823.761 823.761 823.761 823.761 823.761 823.761 823.761 823.761 823.761 823.761 823.761 823.761 823.761 823.761 823.761 823.761
796.789 796.783 796.777 796.771 796.764 796.758 796.752 796.746 796.739 796.733 796.727 796.721 796.714 796.708 796.702 796.696 796.689 796.683 796.677 796.671 796.664 796.658 796.652 796.646 796.639 796.633 796.627 796.621 796.614 796.608 796.602 796.596 796.589 796.583 796.577 796.571 796.564 796.558 796.552 796.546 796.539 796.533 796.527 796.520 796.514 796.514 796.514 796.514 796.514 796.514 796.514 796.514 796.514 796.514 796.514 796.514 796.514 796.514 796.514 796.514 796.514 796.514 796.514 796.514 796.514 796.514 796.514 796.514 796.514 796.514 796.514 796.514 796.514 796.514 796.514 796.514 796.514 796.514 796.514 796.517 796.524 796.530 796.536 796.542 796.549 796.555 796.561 796.567 796.574 796.580 796.586 796.592 796.599 796.605 796.611 796.617 796.624 796.630 796.636 796.642 796.649 796.655 796.661 796.668 796.674 796.680 796.686 796.693 796.699 796.705 796.711 796.718 796.724 796.730 796.736 796.743 796.749 796.755 796.761 796.768 796.774 796.780 796.786 796.793 -340282346638528859811704183484516925440.000 796.799 796.799 796.799 796.799 796.799 796.799 796.799 796.799 796.799 796.799 796.799 796.799 796.799 796.799 796.799 796.799 796.799 796.799 796.799 796.799 796.799 796.799 796.799 796.799 796.799 796.799 796.799 796.799 796.799 796.799 796.799 796.799 796.799 796.799 796.799 796.799 796.799 796.799 796.799 796.799 796.799 796.799 796.799 796.799 796.799 796.799 796.799 796.799 796.799 796.799 796.799 796.799 796.799 796.799 796.799 796.799 796.799 796.799 796.799 796.799 796.799 796.799 796.799 796.799 796.799 796.799 796.799 796.799 796.799 796.799 796.799 796.799 796.799 796.799 796.799 796.799 796.799 796.799 796.799 796.799 796.799 796.799 796.799 796.799 796.799 796.799 796.799 796.799 796.799 796.799 796.799 796.799 796.799 796.799 796.799 796.799 796.799 796.799 796.799 796.799 796.799 796.799 796.799 796.799 796.799 796.799 796.799 796.799 796.799 796.799 796.799 796.799 796.799 796.799 796.799 796.799 796.799 796.799 796.799 796.799 796.799 796.799 796.799 796.799 796.799 796.799 796.799 796.799 796.799 796.799 796.799 796.799 796.799 796.799 796.799 796.799 796.799 796.799 796.799 796.799 796.799 796.799 796.799 796.799 796.799 796.799 796.799 796.799 796.799 796.799 796.799 796.799 796.799 796.799 796.799 796.799 796.799 796.799 796.799 -340282346638528859811704183484516925440.000 796.793 796.786 796.780 796.774 796.768 796.761 796.755 796.749 796.743 796.736 796.730 796.724 796.718 796.711 796.705 796.699 796.693 796.686 796.680 796.674 796.668 796.661 796.655 796.649 796.642 796.636 796.630 796.624 796.617 796.611 796.605 796.599 796.592 796.586 796.580 796.574 796.567 796.561 796.555 796.549 796.542 796.536 796.530 796.524 796.517 796.514 796.514 796.514 796.514 796.514 796.514 796.514 796.514 796.514 796.514 796.514 796.514 796.514 796.514 796.514 796.514 796.514 796.514 796.514 796.514 796.514 796.514 796.514 796.514 796.514 796.514 796.514 796.514 796.514 796.514 796.514 796.514 796.514 796.514 0.000 796.520 796.527 796.533 796.539 796.546 796.552 796.558 796.564 796.571 796.577 796.583 796.589 796.596 796.602 796.608 796.614 796.621 796.627 796.633 796.639 796.646 796.652 796.658 796.664 796.671 796.677 796.683 796.689 796.696 796.702 796.708 796.714 796.721 796.727 796.733 796.739 796.746 796.752 796.758 796.764 796.771 796.777 796.783 796.789 796.796 796.799 796.799 796.799 796.799 796.799 796.799 796.799 796.799 796.799 796.799 796.799 796.799 796.799 796.799 796.799 796.799 796.799 796.799 796.799 796.799 796.799 796.799 796.799 796.799 796.799 796.799 796.799 796.799 796.799 796.799 796.799 796.799 796.799 796.799 796.799 796.799 796.799 796.799 796.799 796.799 796.799
769.836 769.830 769.824 769.818 769.811 769.805 769.799 769.793 769.786 769.780 769.774 769.768 769.761 769.755 769.749 769.743 769.736 769.730 769.724 769.718 769.711 769.705 769.699 769.693 769.686 769.680 769.674 769.668 769.661 769.655 769.649 769.643 769.636 769.630 769.624 769.617 769.611 769.605 769.599 769.592 769.586 769.580 769.574 769.567 769.561 769.561 769.561 769.561 769.561 769.561 769.561 769.561 769.561 769.561 769.561 769.561 769.561 769.561 769.561 769.561 769.561 769.561 769.561 769.561 769.561 769.561 769.561 769.561 769.561 769.561 769.561 769.561 769.561 769.561 769.561 769.561 769.561 769.561 769.561 769.561 769.561 769.567 769.574 769.580 769.586 769.592 769.599 769.605 769.611 769.617 769.624 769.630 769.636 769.642 769.649 769.655 769.661 769.667 769.674 769.680 769.686 769.692 769.699 769.705 769.711 769.717 769.724 769.730 769.736 769.742 769.749 769.755 769.761 769.767 769.774 769.780 769.786 769.792 769.799 769.805 769.811 769.817 769.824 769.830 -340282346638528859811704183484516925440.000 769.836 769.836 769.836 769.836 769.836 769.836 769.836 769.836 769.836 769.836 769.836 769.836 769.836 769.836 769.836 769.836 769.836 769.836 769.836 769.836 769.836 769.836 769.836 769.836 769.836 769.836 769.836 769.836 769.836 769.836 769.836 769.836 769.836 769.836 769.836 769.836 769.836 769.836 769.836 769.836 769.836 769.836 769.836 769.836 769.836 769.836 769.836 769.836 769.836 769.836 769.836 769.836 769.836 769.836 769.836 769.836 769.836 769.836 769.836 769.836 769.836 769.836 769.836 769.836 769.836 769.836 769.836 769.836 769.836 769.836 769.836 769.836 769.836 769.836 769.836 769.836 769.836 769.836 769.836 769.836 769.836 769.836 769.836 769.836 769.836 769.836 769.836 769.836 769.836 769.836 769.836 769.836 769.836 769.836 769.836 769.836 769.836 769.836 769.836 769.836 769.836 769.836 769.836 769.836 769.836 769.836 769.836 769.836 769.836 769.836 769.836 769.836 769.836 769.836 769.836 769.836 769.836 769.836 769.836 769.836 769.836 769.836 769.836 769.836 769.836 769.836 769.836 769.836 769.836 769.836 769.836 769.836 769.836 769.836 769.836 769.836 769.836 769.836 769.836 769.836 769.836 769.836 769.836 769.836 769.836 769.836 769.836 769.836 769.836 769.836 769.836 769.836 769.836 769.836 769.836 769.836 769.836 769.836 769.836 -340282346638528859811704183484516925440.000 769.830 769.824 769.817 769.811 769.805 769.799 769.792 769.786 769.780 769.774 769.767 769.761 769.755 769.749 769.742 769.736 769.730 769.724 769.717 769.711 769.705 769.699 769.692 769.686 769.680 769.674 769.667 769.661 769.655 769.649 769.642 769.636 769.630 769.624 769.617 769.611 769.605 769.599 769.592 769.586 769.580 769.574 769.567 769.561 769.561 769.561 769.561 769.561 769.561 769.561 769.561 769.561 769.561 769.561 769.561 769.561 769.561 769.561 769.561 769.561 769.561 769.561 769.561 769.561 769.561 769.561 769.561 769.561 769.561 769.561 769.561 769.561 769.561 769.561 769.561 769.561 769.561 769.561 769.561 0.000 769.567 769.574 769.580 769.586 769.592 769.599 769.605 769.611 769.617 769.624 769.630 769.636 769.643 769.649 769.655 769.661 769.668 769.674 769.680 769.686 769.693 769.699 769.705 769.711 769.718 769.724 769.730 769.736 769.743 769.749 769.755 769.761 769.768 769.774 769.780 769.786 769.793 769.799 769.805 769.811 769.818 769.824 769.830 769.836 769.836 769.836 769.836 769.836 769.836 769.836 769.836 769.836 769.836 769.836 769.836 769.836 769.836 769.836 769.836 769.836 769.836 769.836 769.836 769.836 769.836 769.836 769.836 769.836 769.836 769.836 769.836 769.836 769.836 769.836 769.836 769.836 769.836 769.836 769.836 769.836 769.836 769.836 769.836 769.836 769.836 769.836
742.873 742.873 742.871 742.865 742.858 742.852 742.846 742.840 742.833 742.827 742.821 742.815 742.808 742.802 742.796 742.790 742.783 742.777 742.771 742.765 742.758 742.752 742.746 742.739 742.733 742.727 742.721 742.714 742.708 742.702 742.696 742.689 742.683 742.677 742.671 742.664 742.658 742.652 742.646 742.639 742.633 742.627 742.621 742.614 742.608 742.608 742.608 742.608 742.608 742.608 742.608 742.608 742.608 742.608 742.608 742.608 742.608 742.608 742.608 742.608 742.608 742.608 742.608 742.608 742.608 742.608 742.608 742.608 742.608 742.608 742.608 742.608 742.608 742.608 742.608 742.608 742.608 742.608 742.608 742.608 742.608 742.608 742.611 742.617 742.623 742.630 742.636 742.642 742.648 742.655 742.661 742.667 742.673 742.680 742.686 742.692 742.698 742.705 742.711 742.717 742.723 742.730 742.736 742.742 742.748 742.755 742.761 742.767 742.773 742.780 742.786 742.792 742.798 742.805 742.811 742.817 742.823 742.830 742.836 742.842 742.848 742.855 742.861 742.867 -340282346638528859811704183484516925440.000 742.873 742.873 742.873 742.873 742.873 742.873 742.873 742.873 742.873 742.873 742.873 742.873 742.873 742.873 742.873 742.873 742.873 742.873 742.873 742.873 742.873 742.873 742.873 742.873 742.873 742.873 742.873 742.873 742.873 742.873 742.873 742.873 742.873 742.873 742.873 742.873 742.873 742.873 742.873 742.873 742.873 742.873 742.873 742.873 742.873 742.873 742.873 742.873 742.873 742.873 742.873 742.873 742.873 742.873 742.873 742.873 742.873 742.873 742.873 742.873 742.873 742.873 742.873 742.873 742.873 742.873 742.873 742.873 742.873 742.873 742.873 742.873 742.873 742.873 742.873 742.873 742.873 742.873 742.873 742.873 742.873 742.873 742.873 742.873 742.873 742.873 742.873 742.873 742.873 742.873 742.873 742.873 742.873 742.873 742.873 742.873 742.873 742.873 742.873 742.873 742.873 742.873 742.873 742.873 742.873 742.873 742.873 742.873 742.873 742.873 742.873 742.873 742.873 742.873 742.873 742.873 742.873 742.873 742.873 742.873 742.873 742.873 742.873 742.873 742.873 742.873 742.873 742.873 742.873 742.873 742.873 742.873 742.873 742.873 742.873 742.873 742.873 742.873 742.873 742.873 742.873 742.873 742.873 742.873 742.873 742.873 742.873 742.873 742.873 742.873 742.873 742.873 742.873 742.873 742.873 742.873 742.873 742.873 742.873 -340282346638528859811704183484516925440.000 742.867 742.861 742.855 742.848 742.842 742.836 742.830 742.823 742.817 742.811 742.805 742.798 742.792 742.786 742.780 742.773 742.767 742.761 742.755 742.748 742.742 742.736 742.730 742.723 742.717 742.711 742.705 742.698 742.692 742.686 742.680 742.673 742.667 742.661 742.655 742.648 742.642 742.636 742.630 742.623 742.617 742.611 742.608 742.608 742.608 742.608 742.608 742.608 742.608 742.608 742.608 742.608 742.608 742.608 742.608 742.608 742.608 742.608 742.608 742.608 742.608 742.608 742.608 742.608 742.608 742.608 742.608 742.608 742.608 742.608 742.608 742.608 742.608 742.608 742.608 742.608 742.608 742.608 742.608 0.000 742.614 742.621 742.627 742.633 742.639 742.646 742.652 742.658 742.664 742.671 742.677 742.683 742.689 742.696 742.702 742.708 742.714 742.721 742.727 742.733 742.739 742.746 742.752 742.758 742.765 742.771 742.777 742.783 742.790 742.796 742.802 742.808 742.815 742.821 742.827 742.833 742.840 742.846 742.852 742.858 742.865 742.871 742.873 742.873 742.873 742.873 742.873 742.873 742.873 742.873 742.873 742.873 742.873 742.873 742.873 742.873 742.873 742.873 742.873 742.873 742.873 742.873 742.873 742.873 742.873 742.873 742.873 742.873 742.873 742.873 742.873 742.873 742.873 742.873 742.873 742.873 742.873 742.873 742.873 742.873 742.873 742.873 742.873 742.873 742.873 742.873
715.911 715.911 715.911 715.911 715.905 715.899 715.893 715.887 715.880 715.874 715.868 715.861 715.855 715.849 715.843 715.836 715.830 715.824 715.818 715.811 715.805 715.799 715.793 715.786 715.780 715.774 715.768 715.761 715.755 715.749 715.743 715.736 715.730 715.724 715.718 715.711 715.705 715.699 715.693 715.686 715.680 715.674 715.668 715.661 715.655 715.655 715.655 715.655 715.655 715.655 715.655 715.655 715.655 715.655 715.655 715.655 715.655 715.655 715.655 715.655 715.655 715.655 715.655 715.655 715.655 715.655 715.655 715.655 715.655 715.655 715.655 715.655 715.655 715.655 715.655 715.655 715.655 715.655 715.655 715.655 715.655 715.655 715.655 715.655 715.661 715.667 715.673 715.680 715.686 715.692 715.698 715.705 715.711 715.717 715.723 715.730 715.736 715.742 715.748 715.755 715.761 715.767 715.773 715.780 715.786 715.792 715.798 715.805 715.811 715.817 715.823 715.830 715.836 715.842 715.848 715.855 715.861 715.867 715.873 715.880 715.886 715.892 715.898 715.905 -340282346638528859811704183484516925440.000 715.911 715.911 715.911 715.911 715.911 715.911 715.911 715.911 715.911 715.911 715.911 715.911 715.911 715.911 715.911 715.911 715.911 715.911 715.911 715.911 715.911 715.911 715.911 715.911 715.911 715.911 715.911 715.911 715.911 715.911 715.911 715.911 715.911 715.911 715.911 715.911 715.911 715.911 715.911 715.911 715.911 715.911 715.911 715.911 715.911 715.911 715.911 715.911 715.911 715.911 715.911 715.911 715.911 715.911 715.911 715.911 715.911 715.911 715.911 715.911 715.911 715.911 715.911 715.911 715.911 715.911 715.911 715.911 715.911 715.911 715.911 715.911 715.911 715.911 715.911 715.911 715.911 715.911 715.911 715.911 715.911 715.911 715.911 715.911 715.911 715.911 715.911 715.911 715.911 715.911 715.911 715.911 715.911 715.911 715.911 715.911 715.911 715.911 715.911 715.911 715.911 715.911 715.911 715.911 715.911 715.911 715.911 715.911 715.911 715.911 715.911 715.911 715.911 715.911 715.911 715.911 715.911 715.911 715.911 715.911 715.911 715.911 715.911 715.911 715.911 715.911 715.911 715.911 715.911 715.911 715.911 715.911 715.911 715.911 715.911 715.911 715.911 715.911 715.911 715.911 715.911 715.911 715.911 715.911 715.911 715.911 715.911 715.911 715.911 715.911 715.911 715.911 715.911 715.911 715.911 715.911 715.911 715.911 715.911 -340282346638528859811704183484516925440.000 715.905 715.898 715.892 715.886 715.880 715.873 715.867 715.861 715.855 715.848 715.842 715.836 715.830 715.823 715.817 715.811 715.805 715.798 715.792 715.786 715.780 715.773 715.767 715.761 715.755 715.748 715.742 715.736 715.730 715.723 715.717 715.711 715.705 715.698 715.692 715.686 715.680 715.673 715.667 715.661 715.655 715.655 715.655 715.655 715.655 715.655 715.655 715.655 715.655 715.655 715.655 715.655 715.655 715.655 715.655 715.655 715.655 715.655 715.655 715.655 715.655 715.655 715.655 715.655 715.655 715.655 715.655 715.655 715.655 715.655 715.655 715.655 715.655 715.655 715.655 715.655 715.655 715.655 715.655 0.000 715.661 715.668 715.674 715.680 715.686 715.693 715.699 715.705 715.711 715.718 715.724 715.730 715.736 715.743 715.749 715.755 715.761 715.768 715.774 715.780 715.786 715.793 715.799 715.805 715.811 715.818 715.824 715.830 715.836 715.843 715.849 715.855 715.861 715.868 715.874 715.880 715.887 715.893 715.899 715.905 715.911 715.911 715.911 715.911 715.911 715.911 715.911 715.911 715.911 715.911 715.911 715.911 715.911 715.911 715.911 715.911 715.911 715.911 715.911 715.911 715.911 715.911 715.911 715.911 715.911 715.911 715.911 715.911 715.911 715.911 715.911 715.911 715.911 715.911 715.911 715.911 715.911 715.911 715.911 715.911 715.911 715.911 715.911 715.911 715.911 715.911
688.948 688.948 688.948 688.948 688.948 688.946 688.940 688.933 688.927 688.921 688.915 688.908 688.902 688.896 688.890 688.883 688.877 688.871 688.865 688.858 688.852 688.846 688.840 688.833 688.827 688.821 688.815 688.808 688.802 688.796 688.790 688.783 688.777 688.771 688.765 688.758 688.752 688.746 688.740 688.733 688.727 688.721 688.715 688.708 688.702 688.702 688.702 688.702 688.702 688.702 688.702 688.702 688.702 688.702 688.702 688.702 688.702 688.702 688.702 688.702 688.702 688.702 688.702 688.702 688.702 688.702 688.702 688.702 688.702 688.702 688.702 688.702 688.702 688.702 688.702 688.702 688.702 688.702 688.702 688.702 688.702 688.702 688.702 688.702 688.702 688.704 688.711 688.717 688.723 688.729 688.736 688.742 688.748 688.754 688.761 688.767 688.773 688.779 688.786 688.792 688.798 688.804 688.811 688.817 688.823 688.829 688.836 688.842 688.848 688.854 688.861 688.867 688.873 688.879 688.886 688.892 688.898 688.904 688.911 688.917 688.923 688.929 688.936 688.942 -340282346638528859811704183484516925440.000 688.948 688.948 688.948 688.948 688.948 688.948 688.948 688.948 688.948 688.948 688.948 688.948 688.948 688.948 688.948 688.948 688.948 688.948 688.948 688.948 688.948 688.948 688.948 688.948 688.948 688.948 688.948 688.948 688.948 688.948 688.948 688.948 688.948 688.948 688.948 688.948 688.948 688.948 688.948 688.948 688.948 688.948 688.948 688.948 688.948 688.948 688.948 688.948 688.948 688.948 688.948 688.948 688.948 688.948 688.948 688.948 688.948 688.948 688.948 688.948 688.948 688.948 688.948 688.948 688.948 688.948 688.948 688.948 688.948 688.948 688.948 688.948 688.948 688.948 688.948 688.948 688.948 688.948 688.948 688.948 688.948 688.948 688.948 688.948 688.948 688.948 688.948 688.948 688.948 688.948 688.948 688.948 688.948 688.948 688.948 688.948 688.948 688.948 688.948 688.948 688.948 688.948 688.948 688.948 688.948 688.948 688.948 688.948 688.948 688.948 688.948 688.948 688.948 688.948 688.948 688.948 688.948 688.948 688.948 688.948 688.948 688.948 688.948 688.948 688.948 688.948 688.948 688.948 688.948 688.948 688.948 688.948 688.948 688.948 688.948 688.948 688.948 688.948 688.948 688.948 688.948 688.948 688.948 688.948 688.948 688.948 688.948 688.948 688.948 688.948 688.948 688.948 688.948 688.948 688.948 688.948 688.948 688.948 688.948 -340282346638528859811704183484516925440.000 688.942 688.936 688.929 688.923 688.917 688.911 688.904 688.898 688.892 688.886 688.879 688.873 688.867 688.861 688.854 688.848 688.842 688.836 688.829 688.823 688.817 688.811 688.804 688.798 688.792 688.786 688.779 688.773 688.767 688.761 688.754 688.748 688.742 688.736 688.729 688.723 688.717 688.711 688.704 688.702 688.702 688.702 688.702 688.702 688.702 688.702 688.702 688.702 688.702 688.702 688.702 688.702 688.702 688.702 688.702 688.702 688.702 688.702 688.702 688.702 688.702 688.702 688.702 688.702 688.702 688.702 688.702 688.702 688.702 688.702 688.702 688.702 688.702 688.702 688.702 688.702 688.702 688.702 688.702 0.000 688.708 688.715 688.721 688.727 688.733 688.740 688.746 688.752 688.758 688.765 688.771 688.777 688.783 688.790 688.796 688.802 688.808 688.815 688.821 688.827 688.833 688.840 688.846 688.852 688.858 688.865 688.871 688.877 688.883 688.890 688.896 688.902 688.908 688.915 688.921 688.927 688.933 688.940 688.946 688.948 688.948 688.948 688.948 688.948 688.948 688.948 688.948 688.948 688.948 688.948 688.948 688.948 688.948 688.948 688.948 688.948 688.948 688.948 688.948 688.948 688.948 688.948 688.948 688.948 688.948 688.948 688.948 688.948 688.948 688.948 688.948 688.948 688.948 688.948 688.948 688.948 688.948 688.948 688.948 688.948 688.948 688.948 688.948 688.948 688.948 688.948
661.986 661.986 661.986 661.986 661.986 661.986 661.986 661.980 661.974 661.968 661.962 661.955 661.949 661.943 661.937 661.930 661.924 661.918 661.912 661.905 661.899 661.893 661.887 661.880 661.874 661.868 661.862 661.855 661.849 661.843 661.837 661.830 661.824 661.818 661.812 661.805 661.799 661.793 661.787 661.780 661.774 661.768 661.762 661.755 661.749 661.749 661.749 661.749 661.749 661.749 661.749 661.749 661.749 661.749 661.749 661.749 661.749 661.749 661.749 661.749 661.749 661.749 661.749 661.749 661.749 661.749 661.749 661.749 661.749 661.749 661.749 661.749 661.749 661.749 661.749 661.749 661.749 661.749 661.749 661.749 661.749 661.749 661.749 661.749 661.749 661.749 661.749 661.754 661.761 661.767 661.773 661.779 661.786 661.792 661.798 661.804 661.811 661.817 661.823 661.829 661.836 661.842 661.848 661.854 661.861 661.867 661.873 661.879 661.886 661.892 661.898 661.904 661.911 661.917 661.923 661.929 661.936 661.942 661.948 661.954 661.961 661.967 661.973 661.979 -340282346638528859811704183484516925440.000 661.986 661.986 661.986 661.986 661.986 661.986 661.986 661.986 661.986 661.986 661.986 661.986 661.986 661.986 661.986 661.986 661.986 661.986 661.986 661.986 661.986 661.986 661.986 661.986 661.986 661.986 661.986 661.986 661.986 661.986 661.986 661.986 661.986 661.986 661.986 661.986 661.986 661.986 661.986 661.986 661.986 661.986 661.986 661.986 661.986 661.986 661.986 661.986 661.986 661.986 661.986 661.986 661.986 661.986 661.986 661.986 661.986 661.986 661.986 661.986 661.986 661.986 661.986 661.986 661.986 661.986 661.986 661.986 661.986 661.986 661.986 661.986 661.986 661.986 661.986 661.986 661.986 661.986 661.986 661.986 661.986 661.986 661.986 661.986 661.986 661.986 661.986 661.986 661.986 661.986 661.986 661.986 661.986 661.986 661.986 661.986 661.986 661.986 661.986 661.986 661.986 661.986 661.986 661.986 661.986 661.986 661.986 661.986 661.986 661.986 661.986 661.986 661.986 661.986 661.986 661.986 661.986 661.986 661.986 661.986 661.986 661.986 661.986 661.986 661.986 661.986 661.986 661.986 661.986 661.986 661.986 661.986 661.986 661.986 661.986 661.986 661.986 661.986 661.986 661.986 661.986 661.986 661.986 661.986 661.986 661.986 661.986 661.986 661.986 661.986 661.986 661.986 661.986 661.986 661.986 661.986 661.986 661.986 661.986 -340282346638528859811704183484516925440.000 661.979 661.973 661.967 661.961 661.954 661.948 661.942 661.936 661.929 661.923 661.917 661.911 661.904 661.898 661.892 661.886 661.879 661.873 661.867 661.861 661.854 661.848 661.842 661.836 661.829 661.823 661.817 661.811 661.804 661.798 661.792 661.786 661.779 661.773 661.767 661.761 661.754 661.749 661.749 661.749 661.749 661.749 661.749 661.749 661.749 661.749 661.749 661.749 661.749 661.749 661.749 661.749 661.749 661.749 661.749 661.749 661.749 661.749 661.749 661.749 661.749 661.749 661.749 661.749 661.749 661.749 661.749 661.749 661.749 661.749 661.749 661.749 661.749 661.749 661.749 661.749 661.749 661.749 661.749 0.000 661.755 661.762 661.768 661.774 661.780 661.787 661.793 661.799 661.805 661.812 661.818 661.824 661.830 661.837 661.843 661.849 661.855 661.862 661.868 661.874 661.880 661.887 661.893 661.899 661.905 661.912 661.918 661.924 661.930 661.937 661.943 661.949 661.955 661.962 661.968 661.974 661.980 661.986 661.986 661.986 661.986 661.986 661.986 661.986 661.986 661.986 661.986 661.986 661.986 661.986 661.986 661.986 661.986 661.986 661.986 661.986 661.986 661.986 661.986 661.986 661.986 661.986 661.986 661.986 661.986 661.986 661.986 661.986 661.986 661.986 661.986 661.986 661.986 661.986 661.986 661.986 661.986 661.986 661.986 661.986 661.986 661.986 661.986 661.986 661.986 661.986
635.023 635.023 635.023 635.023 635.023 635.023 635.023 635.023 635.021 635.015 635.009 635.002 634.996 634.990 634.984 634.977 634.971 634.965 634.959 634.952 634.946 634.940 634.934 634.927 634.921 634.915 634.909 634.902 634.896 634.890 634.884 634.877 634.871 634.865 634.859 634.852 634.846 634.840 634.834 634.827 634.821 634.815 634.809 634.802 634.796 634.796 634.796 634.796 634.796 634.796 634.796 634.796 634.796 634.796 634.796 634.796 634.796 634.796 634.796 634.796 634.796 634.796 634.796 634.796 634.796 634.796 634.796 634.796 634.796 634.796 634.796 634.796 634.796 634.796 634.796 634.796 634.796 634.796 634.796 634.796 634.796 634.796 634.796 634.796 634.796 634.796 634.796 634.796 634.798 634.804 634.810 634.817 634.823 634.829 634.835 634.842 634.848 634.854 634.860 634.867 634.873 634.879 634.885 634.892 634.898 634.904 634.910 634.917 634.923 634.929 634.935 634.942 634.948 634.954 634.960 634.967 634.973 634.979 634.985 634.992 634.998 635.004 635.010 635.017 -340282346638528859811704183484516925440.000 635.023 635.023 635.023 635.023 635.023 635.023 635.023 635.023 635.023 635.023 635.023 635.023 635.023 635.023 635.023 635.023 635.023 635.023 635.023 635.023 635.023 635.023 635.023 635.023 635.023 635.023 635.023 635.023 635.023 635.023 635.023 635.023 635.023 635.023 635.023 635.023 635.023 635.023 635.023 635.023 635.023 635.023 635.023 635.023 635.023 635.023 635.023 635.023 635.023 635.023 635.023 635.023 635.023 635.023 635.023 635.023 635.023 635.023 635.023 635.023 635.023 635.023 635.023 635.023 635.023 635.023 635.023 635.023 635.023 635.023 635.023 635.023 635.023 635.023 635.023 635.023 635.023 635.023 635.023 635.023 635.023 635.023 635.023 635.023 635.023 635.023 635.023 635.023 635.023 635.023 635.023 635.023 635.023 635.023 635.023 635.023 635.023 635.023 635.023 635.023 635.023 635.023 635.023 635.023 635.023 635.023 635.023 635.023 635.023 635.023 635.023 635.023 635.023 635.023 635.023 635.023 635.023 635.023 635.023 635.023 635.023 635.023 635.023 635.023 635.023 635.023 635.023 635.023 635.023 635.023 635.023 635.023 635.023 635.023 635.023 635.023 635.023 635.023 635.023 635.023 635.023 635.023 635.023 635.023 635.023 635.023 635.023 635.023 635.023 635.023 635.023 635.023 635.023 635.023 635.023 635.023 635.023 635.023 635.023 -340282346638528859811704183484516925440.000 635.017 635.010 635.004 634.998 634.992 634.985 634.979 634.973 634.967 634.960 634.954 634.948 634.942 634.935 634.929 634.923 634.917 634.910 634.904 634.898 634.892 634.885 634.879 634.873 634.867 634.860 634.854 634.848 634.842 634.835 634.829 634.823 634.817 634.810 634.804 634.798 634.796 634.796 634.796 634.796 634.796 634.796 634.796 634.796 634.796 634.796 634.796 634.796 634.796 634.796 634.796 634.796 634.796 634.796 634.796 634.796 634.796 634.796 634.796 634.796 634.796 634.796 634.796 634.796 634.796 634.796 634.796 634.796 634.796 634.796 634.796 634.796 634.796 634.796 634.796 634.796 634.796 634.796 634.796 0.000 634.802 634.809 634.815 634.821 634.827 634.834 634.840 634.846 634.852 634.859 634.865 634.871 634.877 634.884 634.890 634.896 634.902 634.909 634.915 634.921 634.927 634.934 634.940 634.946 634.952 634.959 634.965 634.971 634.977 634.984 634.990 634.996 635.002 635.009 635.015 635.021 635.023 635.023 635.023 635.023 635.023 635.023 635.023 635.023 635.023 635.023 635.023 635.023 635.023 635.023 635.023 635.023 635.023 635.023 635.023 635.023 635.023 635.023 635.023 635.023 635.023 635.023 635.023 635.023 635.023 635.023 635.023 635.023 635.023 635.023 635.023 635.023 635.023 635.023 635.023 635.023 635.023 635.023 635.023 635.023 635.023 635.023 635.023 635.023 635.023 635.023
608.060 608.060 608.060 608.060 608.060 608.060 608.060 608.060 608.060 608.060 608.056 608.049 608.043 608.037 608.031 608.024 608.018 608.012 608.006 607.999 607.993 607.987 607.981 607.974 607.968 607.962 607.956 607.949 607.943 607.937 607.931 607.924 607.918 607.912 607.906 607.899 607.893 607.887 607.881 607.874 607.868 607.862 607.856 607.849 607.843 607.843 607.843 607.843 607.843 607.843 607.843 607.843 607.843 607.843 607.843 607.843 607.843 607.843 607.843 607.843 607.843 607.843 607.843 607.843 607.843 607.843 607.843 607.843 607.843 607.843 607.843 607.843 607.843 607.843 607.843 607.843 607.843 607.843 607.843 607.843 607.843 607.843 607.843 607.843 607.843 607.843 607.843 607.843 607.843 607.843 607.848 607.854 607.860 607.866 607.873 607.879 607.885 607.891 607.898 607.904 607.910 607.916 607.923 607.929 607.935 607.941 607.948 607.954 607.960 607.967 607.973 607.979 607.985 607.992 607.998 608.004 608.010 608.017 608.023 608.029 608.035 608.042 608.048 608.054 -340282346638528859811704183484516925440.000 608.060 608.060 608.060 608.060 608.060 608.060 608.060 608.060 608.060 608.060 608.060 608.060 608.060 608.060 608.060 608.060 608.060 608.060 608.060 608.060 608.060 608.060 608.060 608.060 608.060 608.060 608.060 608.060 608.060 608.060 608.060 608.060 608.060 608.060 608.060 608.060 608.060 608.060 608.060 608.060 608.060 608.060 608.060 608.060 608.060 608.060 608.060 608.060 608.060 608.060 608.060 608.060 608.060 608.060 608.060 608.060 608.060 608.060 608.060 608.060 608.060 608.060 608.060 608.060 608.060 608.060 608.060 608.060 608.060 608.060 608.060 608.060 608.060 608.060 608.060 608.060 608.060 608.060 608.060 608.060 608.060 608.060 608.060 608.060 608.060 608.060 608.060 608.060 608.060 608.060 608.060 608.060 608.060 608.060 608.060 608.060 608.060 608.060 608.060 608.060 608.060 608.060 608.060 608.060 608.060 608.060 608.060 608.060 608.060 608.060 608.060 608.060 608.060 608.060 608.060 608.060 608.060 608.060 608.060 608.060 608.060 608.060 608.060 608.060 608.060 608.060 608.060 608.060 608.060 608.060 608.060 608.060 608.060 608.060 608.060 608.060 608.060 608.060 608.060 608.060 608.060 608.060 608.060 608.060 608.060 608.060 608.060 608.060 608.060 608.060 608.060 608.060 608.060 608.060 608.060 608.060 608.060 608.060 608.060 -340282346638528859811704183484516925440.000 608.054 608.048 608.042 608.035 608.029 608.023 608.017 608.010 608.004 607.998 607.992 607.985 607.979 607.973 607.967 607.960 607.954 607.948 607.941 607.935 607.929 607.923 607.916 607.910 607.904 607.898 607.891 607.885 607.879 607.873 607.866 607.860 607.854 607.848 607.843 607.843 607.843 607.843 607.843 607.843 607.843 607.843 607.843 607.843 607.843 607.843 607.843 607.843 607.843 607.843 607.843 607.843 607.843 607.843 607.843 607.843 607.843 607.843 607.843 607.843 607.843 607.843 607.843 607.843 607.843 607.843 607.843 607.843 607.843 607.843 607.843 607.843 607.843 607.843 607.843 607.843 607.843 607.843 607.843 0.000 607.849 607.856 607.862 607.868 607.874 607.881 607.887 607.893 607.899 607.906 607.912 607.918 607.924 607.931 607.937 607.943 607.949 607.956 607.962 607.968 607.974 607.981 607.987 607.993 607.999 608.006 608.012 608.018 608.024 608.031 608.037 608.043 608.049 608.056 608.060 608.060 608.060 608.060 608.060 608.060 608.060 608.060 608.060 608.060 608.060 608.060 608.060 608.060 608.060 608.060 608.060 608.060 608.060 608.060 608.060 608.060 608.060 608.060 608.060 608.060 608.060 608.060 608.060 608.060 608.060 608.060 608.060 608.060 608.060 608.060 608.060 608.060 608.060 608.060 608.060 608.060 608.060 608.060 608.060 608.060 608.060 608.060 608.060 608.060 608.060 608.060
581.098 581.098 581.098 581.098 581.098 581.098 581.098 581.098 581.098 581.098 581.098 581.096 581.090 581.084 581.078 581.071 581.065 581.059 581.053 581.046 581.040 581.034 581.028 581.021 581.015 581.009 581.003 580.996 580.990 580.984 580.978 580.971 580.965 580.959 580.953 580.946 580.940 580.934 580.928 580.921 580.915 580.909 580.903 580.896 580.890 580.890 580.890 580.890 580.890 580.890 580.890 580.890 580.890 580.890 580.890 580.890 580.890 580.890 580.890 580.890 580.890 580.890 580.890 580.890 580.890 580.890 580.890 580.890 580.890 580.890 580.890 580.890 580.890 580.890 580.890 580.890 580.890 580.890 580.890 580.890 580.890 580.890 580.890 580.890 580.890 580.890 580.890 580.890 580.890 580.890 580.890 580.891 580.898 580.904 580.910 580.916 580.923 580.929 580.935 580.941 580.948 580.954 580.960 580.966 580.973 580.979 580.985 580.991 580.998 581.004 581.010 581.016 581.023 581.029 581.035 581.041 581.048 581.054 581.060 581.066 581.073 581.079 581.085 581.091 -340282346638528859811704183484516925440.000 581.098 581.098 581.098 581.098 581.098 581.098 581.098 581.098 581.098 581.098 581.098 581.098 581.098 581.098 581.098 581.098 581.098 581.098 581.098 581.098 581.098 581.098 581.098 581.098 581.098 581.098 581.098 581.098 581.098 581.098 581.098 581.098 581.098 581.098 581.098 581.098 581.098 581.098 581.098 581.098 581.098 581.098 581.098 581.098 581.098 581.098 581.098 581.098 581.098 581.098 581.098 581.098 581.098 581.098 581.098 581.098 581.098 581.098 581.098 581.098 581.098 581.098 581.098 581.098 581.098 581.098 581.098 581.098 581.098 581.098 581.098 581.098 581.098 581.098 581.098 581.098 581.098 581.098 581.098 581.098 581.098 581.098 581.098 581.098 581.098 581.098 581.098 581.098 581.098 581.098 581.098 581.098 581.098 581.098 581.098 581.098 581.098 581.098 581.098 581.098 581.098 581.098 581.098 581.098 581.098 581.098 581.098 581.098 581.098 581.098 581.098 581.098 581.098 581.098 581.098 581.098 581.098 581.098 581.098 581.098 581.098 581.098 581.098 581.098 581.098 581.098 581.098 581.098 581.098 581.098 581.098 581.098 581.098 581.098 581.098 581.098 581.098 581.098 581.098 581.098 581.098 581.098 581.098 581.098 581.098 581.098 581.098 581.098 581.098 581.098 581.098 581.098 581.098 581.098 581.098 581.098 581.098 581.098 581.098 -340282346638528859811704183484516925440.000 581.091 581.085 581.079 581.073 581.066 581.060 581.054 581.048 581.041 581.035 581.029 581.023 581.016 581.010 581.004 580.998 580.991 580.985 580.979 580.973 580.966 580.960 580.954 580.948 580.941 580.935 580.929 580.923 580.916 580.910 580.904 580.898 580.891 580.890 580.890 580.890 580.890 580.890 580.890 580.890 580.890 580.890 580.890 580.890 580.890 580.890 580.890 580.890 580.890 580.890 580.890 580.890 580.890 580.890 580.890 580.890 580.890 580.890 580.890 580.890 580.890 580.890 580.890 580.890 580.890 580.890 580.890 580.890 580.890 580.890 580.890 580.890 580.890 580.890 580.890 580.890 580.890 580.890 580.890 0.000 580.896 580.903 580.909 580.915 580.921 580.928 580.934 580.940 580.946 580.953 580.959 580.965 580.971 580.978 580.984 580.990 580.996 581.003 581.009 581.015 581.021 581.028 581.034 581.040 581.046 581.053 581.059 581.065 581.071 581.078 581.084 581.090 581.096 581.098 581.098 581.098 581.098 581.098 581.098 581.098 581.098 581.098 581.098 581.098 581.098 581.098 581.098 581.098 581.098 581.098 581.098 581.098 581.098 581.098 581.098 581.098 581.098 581.098 581.098 581.098 581.098 581.098 581.098 581.098 581.098 581.098 581.098 581.098 581.098 581.098 581.098 581.098 581.098 581.098 581.098 581.098 581.098 581.098 581.098 581.098 581.098 581.098 581.098 581.098 581.098 581.098
554.135 554.135 554.135 554.135 554.135 554.135 554.135 554.135 554.135 554.135 554.135 554.135 554.135 554.131 554.125 554.118 554.112 554.106 554.100 554.093 554.087 554.081 554.075 554.068 554.062 554.056 554.050 554.043 554.037 554.031 554.025 554.018 554.012 554.006 554.000 553.993 553.987 553.981 553.975 553.968 553.962 553.956 553.950 553.943 553.937 553.937 553.937 553.937 553.937 553.937 553.937 553.937 553.937 553.937 553.937 553.937 553.937 553.937 553.937 553.937 553.937 553.937 553.937 553.937 553.937 553.937 553.937 553.937 553.937 553.937 553.937 553.937 553.937 553.937 553.937 553.937 553.937 553.937 553.937 553.937 553.937 553.937 553.937 553.937 553.937 553.937 553.937 553.937 553.937 553.937 553.937 553.937 553.937 553.941 553.947 553.954 553.960 553.966 553.972 553.979 553.985 553.991 553.997 554.004 554.010 554.016 554.022 554.029 554.035 554.041 554.047 554.054 554.060 554.066 554.072 554.079 554.085 554.091 554.097 554.104 554.110 554.116 554.122 554.129 -340282346638528859811704183484516925440.000 554.135 554.135 554.135 554.135 554.135 554.135 554.135 554.135 554.135 554.135 554.135 554.135 554.135 554.135 554.135 554.135 554.135 554.135 554.135 554.135 554.135 554.135 554.135 554.135 554.135 554.135 554.135 554.135 554.135 554.135 554.135 554.135 554.135 554.135 554.135 554.135 554.135 554.135 554.135 554.135 554.135 554.135 554.135 554.135 554.135 554.135 554.135 554.135 554.135 554.135 554.135 554.135 554.135 554.135 554.135 554.135 554.135 554.135 554.135 554.135 554.135 554.135 554.135 554.135 554.135 554.135 554.135 554.135 554.135 554.135 554.135 554.135 554.135 554.135 554.135 554.135 554.135 554.135 554.135 554.135 554.135 554.135 554.135 554.135 554.135 554.135 554.135 554.135 554.135 554.135 554.135 554.135 554.135 554.135 554.135 554.135 554.135 554.135 554.135 554.135 554.135 554.135 554.135 554.135 554.135 554.135 554.135 554.135 554.135 554.135 554.135 554.135 554.135 554.135 554.135 554.135 554.135 554.135 554.135 554.135 554.135 554.135 554.135 554.135 554.135 554.135 554.135 554.135 554.135 554.135 554.135 554.135 554.135 554.135 554.135 554.135 554.135 554.135 554.135 554.135 554.135 554.135 554.135 554.135 554.135 554.135 554.135 554.135 554.135 554.135 554.135 554.135 554.135 554.135 554.135 554.135 554.135 554.135 554.135 -340282346638528859811704183484516925440.000 554.129 554.122 554.116 554.110 554.104 554.097 554.091 554.085 554.079 554.072 554.066 554.060 554.054 554.047 554.041 554.035 554.029 554.022 554.016 554.010 554.004 553.997 553.991 553.985 553.979 553.972 553.966 553.960 553.954 553.947 553.941 553.937 553.937 553.937 553.937 553.937 553.937 553.937 553.937 553.937 553.937 553.937 553.937 553.937 553.937 553.937 553.937 553.937 553.937 553.937 553.937 553.937 553.937 553.937 553.937 553.937 553.937 553.937 553.937 553.937 553.937 553.937 553.937 553.937 553.937 553.937 553.937 553.937 553.937 553.937 553.937 553.937 553.937 553.937 553.937 553.937 553.937 553.937 553.937 0.000 553.943 553.950 553.956 553.962 553.968 553.975 553.981 553.987 553.993 554.000 554.006 554.012 554.018 554.025 554.031 554.037 554.043 554.050 554.056 554.062 554.068 554.075 554.081 554.087 554.093 554.100 554.106 554.112 554.118 554.125 554.131 554.135 554.135 554.135 554.135 554.135 554.135 554.135 554.135 554.135 554.135 554.135 554.135 554.135 554.135 554.135 554.135 554.135 554.135 554.135 554.135 554.135 554.135 554.135 554.135 554.135 554.135 554.135 554.135 554.135 554.135 554.135 554.135 554.135 554.135 554.135 554.135 554.135 554.135 554.135 554.135 554.135 554.135 554.135 554.135 554.135 554.135 554.135 554.135 554.135 554.135 554.135 554.135 554.135 554.135 554.135
527.172 527.172 527.172 527.172 527.172 527.172 527.172 527.172 527.172 527.172 527.172 527.172 527.172 527.172 527.172 527.165 527.159 527.153 527.147 527.140 527.134 527.128 527.122 527.115 527.109 527.103 527.097 527.090 527.084 527.078 527.072 527.065 527.059 527.053 527.047 527.040 527.034 527.028 527.022 527.015 527.009 527.003 526.997 526.990 526.984 526.984 526.984 526.984 526.984 526.984 526.984 526.984 526.984 526.984 526.984 526.984 526.984 526.984 526.984 526.984 526.984 526.984 526.984 526.984 526.984 526.984 526.984 526.984 526.984 526.984 526.984 526.984 526.984 526.984 526.984 526.984 526.984 526.984 526.984 526.984 526.984 526.984 526.984 526.984 526.984 526.984 526.984 526.984 526.984 526.984 526.984 526.984 526.984 526.984 526.985 526.991 526.997 527.004 527.010 527.016 527.022 527.029 527.035 527.041 527.047 527.054 527.060 527.066 527.072 527.079 527.085 527.091 527.097 527.104 527.110 527.116 527.122 527.129 527.135 527.141 527.147 527.154 527.160 527.166 -340282346638528859811704183484516925440.000 527.172 527.172 527.172 527.172 527.172 527.172 527.172 527.172 527.172 527.172 527.172 527.172 527.172 527.172 527.172 527.172 527.172 527.172 527.172 527.172 527.172 527.172 527.172 527.172 527.172 527.172 527.172 527.172 527.172 527.172 527.172 527.172 527.172 527.172 527.172 527.172 527.172 527.172 527.172 527.172 527.172 527.172 527.172 527.172 527.172 527.172 527.172 527.172 527.172 527.172 527.172 527.172 527.172 527.172 527.172 527.172 527.172 527.172 527.172 527.172 527.172 527.172 527.172 527.172 527.172 527.172 527.172 527.172 527.172 527.172 527.172 527.172 527.172 527.172 527.172 527.172 527.172 527.172 527.172 527.172 527.172 527.172 527.172 527.172 527.172 527.172 527.172 527.172 527.172 527.172 527.172 527.172 527.172 527.172 527.172 527.172 527.172 527.172 527.172 527.172 527.172 527.172 527.172 527.172 527.172 527.172 527.172 527.172 527.172 527.172 527.172 527.172 527.172 527.172 527.172 527.172 527.172 527.172 527.172 527.172 527.172 527.172 527.172 527.172 527.172 527.172 527.172 527.172 527.172 527.172 527.172 527.172 527.172 527.172 527.172 527.172 527.172 527.172 527.172 527.172 527.172 527.172 527.172 527.172 527.172 527.172 527.172 527.172 527.172 527.172 527.172 527.172 527.172 527.172 527.172 527.172 527.172 527.172 527.172 -340282346638528859811704183484516925440.000 527.166 527.160 527.154 527.147 527.141 527.135 527.129 527.122 527.116 527.110 527.104 527.097 527.091 527.085 527.079 527.072 527.066 527.060 527.054 527.047 527.041 527.035 527.029 527.022 527.016 527.010 527.004 526.997 526.991 526.985 526.984 526.984 526.984 526.984 526.984 526.984 526.984 526.984 526.984 526.984 526.984 526.984 526.984 526.984 526.984 526.984 526.984 526.984 526.984 526.984 526.984 526.984 526.984 526.984 526.984 526.984 526.984 526.984 526.984 526.984 526.984 526.984 526.984 526.984 526.984 526.984 526.984 526.984 526.984 526.984 526.984 526.984 526.984 526.984 526.984 526.984 526.984 526.984 526.984 0.000 526.990 526.997 527.003 527.009 527.015 527.022 527.028 527.034 527.040 527.047 527.053 527.059 527.065 527.072 527.078 527.084 527.090 527.097 527.103 527.109 527.115 527.122 527.128 527.134 527.140 527.147 527.153 527.159 527.165 527.172 527.172 527.172 527.172 527.172 527.172 527.172 527.172 527.172 527.172 527.172 527.172 527.172 527.172 527.172 527.172 527.172 527.172 527.172 527.172 527.172 527.172 527.172 527.172 527.172 527.172 527.172 527.172 527.172 527.172 527.172 527.172 527.172 527.172 527.172 527.172 527.172 527.172 527.172 527.172 527.172 527.172 527.172 527.172 527.172 527.172 527.172 527.172 527.172 527.172 527.172 527.172 527.172 527.172 527.172 527.172 527.172
500.210 500.210 500.210 500.210 500.210 500.210 500.210 500.210 500.210 500.210 500.210 500.210 500.210 500.210 500.210 500.210 500.206 500.200 500.194 500.187 500.181 500.175 500.169 500.162 500.156 500.150 500.144 500.137 500.131 500.125 500.119 500.112 500.106 500.100 500.094 500.087 500.081 500.075 500.069 500.062 500.056 500.050 500.044 500.037 500.031 500.031 500.031 500.031 500.031 500.031 500.031 500.031 500.031 500.031 500.031 500.031 500.031 500.031 500.031 500.031 500.031 500.031 500.031 500.031 500.031 500.031 500.031 500.031 500.031 500.031 500.031 500.031 500.031 500.031 500.031 500.031 500.031 500.031 500.031 500.031 500.031 500.031 500.031 500.031 500.031 500.031 500.031 500.031 500.031 500.031 500.031 500.031 500.031 500.031 500.031 500.031 500.035 500.041 500.047 500.053 500.060 500.066 500.072 500.078 500.085 500.091 500.097 500.103 500.110 500.116 500.122 500.128 500.135 500.141 500.147 500.153 500.160 500.166 500.172 500.178 500.185 500.191 500.197 500.203 -340282346638528859811704183484516925440.000 500.210 500.210 500.210 500.210 500.210 500.210 500.210 500.210 500.210 500.210 500.210 500.210 500.210 500.210 500.210 500.210 500.210 500.210 500.210 500.210 500.210 500.210 500.210 500.210 500.210 500.210 500.210 500.210 500.210 500.210 500.210 500.210 500.210 500.210 500.210 500.210 500.210 500.210 500.210 500.210 500.210 500.210 500.210 500.210 500.210 500.210 500.210 500.210 500.210 500.210 500.210 500.210 500.210 500.210 500.210 500.210 500.210 500.210 500.210 500.210 500.210 500.210 500.210 500.210 500.210 500.210 500.210 500.210 500.210 500.210 500.210 500.210 500.210 500.210 500.210 500.210 500.210 500.210 500.210 500.210 500.210 500.210 500.210 500.210 500.210 500.210 500.210 500.210 500.210 500.210 500.210 500.210 500.210 500.210 500.210 500.210 500.210 500.210 500.210 500.210 500.210 500.210 500.210 500.210 500.210 500.210 500.210 500.210 500.210 500.210 500.210 500.210 500.210 500.210 500.210 500.210 500.210 500.210 500.210 500.210 500.210 500.210 500.210 500.210 500.210 500.210 500.210 500.210 500.210 500.210 500.210 500.210 500.210 500.210 500.210 500.210 500.210 500.210 500.210 500.210 500.210 500.210 500.210 500.210 500.210 500.210 500.210 500.210 500.210 500.210 500.210 500.210 500.210 500.210 500.210 500.210 500.210 500.210 500.210 -340282346638528859811704183484516925440.000 500.203 500.197 500.191 500.185 500.178 500.172 500.166 500.160 500.153 500.147 500.141 500.135 500.128 500.122 500.116 500.110 500.103 500.097 500.091 500.085 500.078 500.072 500.066 500.060 500.053 500.047 500.041 500.035 500.031 500.031 500.031 500.031 500.031 500.031 500.031 500.031 500.031 500.031 500.031 500.031 500.031 500.031 500.031 500.031 500.031 500.031 500.031 500.031 500.031 500.031 500.031 500.031 500.031 500.031 500.031 500.031 500.031 500.031 500.031 500.031 500.031 500.031 500.031 500.031 500.031 500.031 500.031 500.031 500.031 500.031 500.031 500.031 500.031 500.031 500.031 500.031 500.031 500.031 500.031 0.000 500.037 500.044 500.050 500.056 500.062 500.069 500.075 500.081 500.087 500.094 500.100 500.106 500.112 500.119 500.125 500.131 500.137 500.144 500.150 500.156 500.162 500.169 500.175 500.181 500.187 500.194 500.200 500.206 500.210 500.210 500.210 500.210 500.210 500.210 500.210 500.210 500.210 500.210 500.210 500.210 500.210 500.210 500.210 500.210 500.210 500.210 500.210 500.210 500.210 500.210 500.210 500.210 500.210 500.210 500.210 500.210 500.210 500.210 500.210 500.210 500.210 500.210 500.210 500.210 500.210 500.210 500.210 500.210 500.210 500.210 500.210 500.210 500.210 500.210 500.210 500.210 500.210 500.210 500.210 500.210 500.210 500.210 500.210 500.210 500.210 500.210
473.247 473.247 473.247 473.247 473.247 473.247 473.247 473.247 473.247 473.247 473.247 473.247 473.247 473.247 473.247 473.247 473.247 473.247 473.241 473.234 473.228 473.222 473.216 473.209 473.203 473.197 473.191 473.184 473.178 473.172 473.166 473.159 473.153 473.147 473.141 473.134 473.128 473.122 473.116 473.109 473.103 473.097 473.091 473.084 473.078 473.078 473.078 473.078 473.078 473.078 473.078 473.078 473.078 473.078 473.078 473.078 473.078 473.078 473.078 473.078 473.078 473.078 473.078 473.078 473.078 473.078 473.078 473.078 473.078 473.078 473.078 473.078 473.078 473.078 473.078 473.078 473.078 473.078 473.078 473.078 473.078 473.078 473.078 473.078 473.078 473.078 473.078 473.078 473.078 473.078 473.078 473.078 473.078 473.078 473.078 473.078 473.078 473.078 473.085 473.091 473.097 473.103 473.110 473.116 473.122 473.128 473.135 473.141 473.147 473.153 473.160 473.166 473.172 473.178 473.185 473.191 473.197 473.203 473.210 473.216 473.222 473.228 473.235 473.241 -340282346638528859811704183484516925440.000 473.247 473.247 473.247 473.247 473.247 473.247 473.247 473.247 473.247 473.247 473.247 473.247 473.247 473.247 473.247 473.247 473.247 473.247 473.247 473.247 473.247 473.247 473.247 473.247 473.247 473.247 473.247 473.247 473.247 473.247 473.247 473.247 473.247 473.247 473.247 473.247 473.247 473.247 473.247 473.247 473.247 473.247 473.247 473.247 473.247 473.247 473.247 473.247 473.247 473.247 473.247 473.247 473.247 473.247 473.247 473.247 473.247 473.247 473.247 473.247 473.247 473.247 473.247 473.247 473.247 473.247 473.247 473.247 473.247 473.247 473.247 473.247 473.247 473.247 473.247 473.247 473.247 473.247 473.247 473.247 473.247 473.247 473.247 473.247 473.247 473.247 473.247 473.247 473.247 473.247 473.247 473.247 473.247 473.247 473.247 473.247 473.247 473.247 473.247 473.247 473.247 473.247 473.247 473.247 473.247 473.247 473.247 473.247 473.247 473.247 473.247 473.247 473.247 473.247 473.247 473.247 473.247 473.247 473.247 473.247 473.247 473.247 473.247 473.247 473.247 473.247 473.247 473.247 473.247 473.247 473.247 473.247 473.247 473.247 473.247 473.247 473.247 473.247 473.247 473.247 473.247 473.247 473.247 473.247 473.247 473.247 473.247 473.247 473.247 473.247 473.247 473.247 473.247 473.247 473.247 473.247 473.247 473.247 473.247 -340282346638528859811704183484516925440.000 473.241 473.235 473.228 473.222 473.216 473.210 473.203 473.197 473.191 473.185 473.178 473.172 473.166 473.160 473.153 473.147 473.141 473.135 473.128 473.122 473.116 473.110 473.103 473.097 473.091 473.085 473.078 473.078 473.078 473.078 473.078 473.078 473.078 473.078 473.078 473.078 473.078 473.078 473.078 473.078 473.078 473.078 473.078 473.078 473.078 473.078 473.078 473.078 473.078 473.078 473.078 473.078 473.078 473.078 473.078 473.078 473.078 473.078 473.078 473.078 473.078 473.078 473.078 473.078 473.078 473.078 473.078 473.078 473.078 473.078 473.078 473.078 473.078 473.078 473.078 473.078 473.078 473.078 473.078 0.000 473.084 473.091 473.097 473.103 473.109 473.116 473.122 473.128 473.134 473.141 473.147 473.153 473.159 473.166 473.172 473.178 473.184 473.191 473.197 473.203 473.209 473.216 473.222 473.228 473.234 473.241 473.247 473.247 473.247 473.247 473.247 473.247 473.247 473.247 473.247 473.247 473.247 473.247 473.247 473.247 473.247 473.247 473.247 473.247 473.247 473.247 473.247 473.247 473.247 473.247 473.247 473.247 473.247 473.247 473.247 473.247 473.247 473.247 473.247 473.247 473.247 473.247 473.247 473.247 473.247 473.247 473.247 473.247 473.247 473.247 473.247 473.247 473.247 473.247 473.247 473.247 473.247 473.247 473.247 473.247 473.247 473.247 473.247 473.247 473.247 473.247
446.284 446.284 446.284 446.284 446.284 446.284 446.284 446.284 446.284 446.284 446.284 446.284 446.284 446.284 446.284 446.284 446.284 446.284 446.284 446.281 446.275 446.269 446.263 446.256 446.250 446.244 446.238 446.231 446.225 446.219 446.213 446.206 446.200 446.194 446.188 446.181 446.175 446.169 446.163 446.156 446.150 446.144 446.138 446.131 446.125 446.125 446.125 446.125 446.125 446.125 446.125 446.125 446.125 446.125 446.125 446.125 446.125 446.125 446.125 446.125 446.125 446.125 446.125 446.125 446.125 446.125 446.125 446.125 446.125 446.125 446.125 446.125 446.125 446.125 446.125 446.125 446.125 446.125 446.125 446.125 446.125 446.125 446.125 446.125 446.125 446.125 446.125 446.125 446.125 446.125 446.125 446.125 446.125 446.125 446.125 446.125 446.125 446.125 446.125 446.128 446.134 446.141 446.147 446.153 446.159 446.166 446.172 446.178 446.184 446.191 446.197 446.203 446.209 446.216 446.222 446.228 446.234 446.241 446.247 446.253 446.259 446.266 446.272 446.278 -340282346638528859811704183484516925440.000 446.284 446.284 446.284 446.284 446.284 446.284 446.284 446.284 446.284 446.284 446.284 446.284 446.284 446.284 446.284 446.284 446.284 446.284 446.284 446.284 446.284 446.284 446.284 446.284 446.284 446.284 446.284 446.284 446.284 446.284 446.284 446.284 446.284 446.284 446.284 446.284 446.284 446.284 446.284 446.284 446.284 446.284 446.284 446.284 446.284 446.284 446.284 446.284 446.284 446.284 446.284 446.284 446.284 446.284 446.284 446.284 446.284 446.284 446.284 446.284 446.284 446.284 446.284 446.284 446.284 446.284 446.284 446.284 446.284 446.284 446.284 446.284 446.284 446.284 446.284 446.284 446.284 446.284 446.284 446.284 446.284 446.284 446.284 446.284 446.284 446.284 446.284 446.284 446.284 446.284 446.284 446.284 446.284 446.284 446.284 446.284 446.284 446.284 446.284 446.284 446.284 446.284 446.284 446.284 446.284 446.284 446.284 446.284 446.284 446.284 446.284 446.284 446.284 446.284 446.284 446.284 446.284 446.284 446.284 446.284 446.284 446.284 446.284 446.284 446.284 446.284 446.284 446.284 446.284 446.284 446.284 446.284 446.284 446.284 446.284 446.284 446.284 446.284 446.284 446.284 446.284 446.284 446.284 446.284 446.284 446.284 446.284 446.284 446.284 446.284 446.284 446.284 446.284 446.284 446.284 446.284 446.284 446.284 446.284 -340282346638528859811704183484516925440.000 446.278 446.272 446.266 446.259 446.253 446.247 446.241 446.234 446.228 446.222 446.216 446.209 446.203 446.197 446.191 446.184 446.178 446.172 446.166 446.159 446.153 446.147 446.141 446.134 446.128 446.125 446.125 446.125 446.125 446.125 446.125 446.125 446.125 446.125 446.125 446.125 446.125 446.125 446.125 446.125 446.125 446.125 446.125 446.125 446.125 446.125 446.125 446.125 446.125 446.125 446.125 446.125 446.125 446.125 446.125 446.125 446.125 446.125 446.125 446.125 446.125 446.125 446.125 446.125 446.125 446.125 446.125 446.125 446.125 446.125 446.125 446.125 446.125 446.125 446.125 446.125 446.125 446.125 446.125 0.000 446.131 446.138 446.144 446.150 446.156 446.163 446.169 446.175 446.181 446.188 446.194 446.200 446.206 446.213 446.219 446.225 446.231 446.238 446.244 446.250 446.256 446.263 446.269 446.275 446.281 446.284 446.284 446.284 446.284 446.284 446.284 446.284 446.284 446.284 446.284 446.284 446.284 446.284 446.284 446.284 446.284 446.284 446.284 446.284 446.284 446.284 446.284 446.284 446.284 446.284 446.284 446.284 446.284 446.284 446.284 446.284 446.284 446.284 446.284 446.284 446.284 446.284 446.284 446.284 446.284 446.284 446.284 446.284 446.284 446.284 446.284 446.284 446.284 446.284 446.284 446.284 446.284 446.284 446.284 446.284 446.284 446.284 446.284 446.284 446.284 446.284
419.322 419.322 419.322 419.322 419.322 419.322 419.322 419.322 419.322 419.322 419.322 419.322 419.322 419.322 419.322 419.322 419.322 419.322 419.322 419.322 419.322 419.316 419.310 419.303 419.297 419.291 419.285 419.278 419.272 419.266 419.260 419.253 419.247 419.241 419.235 419.228 419.222 419.216 419.210 419.203 419.197 419.191 419.185 419.178 419.172 419.172 419.172 419.172 419.172 419.172 419.172 419.172 419.172 419.172 419.172 419.172 419.172 419.172 419.172 419.172 419.172 419.172 419.172 419.172 419.172 419.172 419.172 419.172 419.172 419.172 419.172 419.172 419.172 419.172 419.172 419.172 419.172 419.172 419.172 419.172 419.172 419.172 419.172 419.172 419.172 419.172 419.172 419.172 419.172 419.172 419.172 419.172 419.172 419.172 419.172 419.172 419.172 419.172 419.172 419.172 419.172 419.178 419.184 419.190 419.197 419.203 419.209 419.215 419.222 419.228 419.234 419.240 419.247 419.253 419.259 419.266 419.272 419.278 419.284 419.291 419.297 419.303 419.309 419.316 -340282346638528859811704183484516925440.000 419.322 419.322 419.322 419.322 419.322 419.322 419.322 419.322 419.322 419.322 419.322 419.322 419.322 419.322 419.322 419.322 419.322 419.322 419.322 419.322 419.322 419.322 419.322 419.322 419.322 419.322 419.322 419.322 419.322 419.322 419.322 419.322 419.322 419.322 419.322 419.322 419.322 419.322 419.322 419.322 419.322 419.322 419.322 419.322 419.322 419.322 419.322 419.322 419.322 419.322 419.322 419.322 419.322 419.322 419.322 419.322 419.322 419.322 419.322 419.322 419.322 419.322 419.322 419.322 419.322 419.322 419.322 419.322 419.322 419.322 419.322 419.322 419.322 419.322 419.322 419.322 419.322 419.322 419.322 419.322 419.322 419.322 419.322 419.322 419.322 419.322 419.322 419.322 419.322 419.322 419.322 419.322 419.322 419.322 419.322 419.322 419.322 419.322 419.322 419.322 419.322 419.322 419.322 419.322 419.322 419.322 419.322 419.322 419.322 419.322 419.322 419.322 419.322 419.322 419.322 419.322 419.322 419.322 419.322 419.322 419.322 419.322 419.322 419.322 419.322 419.322 419.322 419.322 419.322 419.322 419.322 419.322 419.322 419.322 419.322 419.322 419.322 419.322 419.322 419.322 419.322 419.322 419.322 419.322 419.322 419.322 419.322 419.322 419.322 419.322 419.322 419.322 419.322 419.322 419.322 419.322 419.322 419.322 419.322 -340282346638528859811704183484516925440.000 419.316 419.309 419.303 419.297 419.291 419.284 419.278 419.272 419.266 419.259 419.253 419.247 419.240 419.234 419.228 419.222 419.215 419.209 419.203 419.197 419.190 419.184 419.178 419.172 419.172 419.172 419.172 419.172 419.172 419.172 419.172 419.172 419.172 419.172 419.172 419.172 419.172 419.172 419.172 419.172 419.172 419.172 419.172 419.172 419.172 419.172 419.172 419.172 419.172 419.172 419.172 419.172 419.172 419.172 419.172 419.172 419.172 419.172 419.172 419.172 419.172 419.172 419.172 419.172 419.172 419.172 419.172 419.172 419.172 419.172 419.172 419.172 419.172 419.172 419.172 419.172 419.172 419.172 419.172 0.000 419.178 419.185 419.191 419.197 419.203 419.210 419.216 419.222 419.228 419.235 419.241 419.247 419.253 419.260 419.266 419.272 419.278 419.285 419.291 419.297 419.303 419.310 419.316 419.322 419.322 419.322 419.322 419.322 419.322 419.322 419.322 419.322 419.322 419.322 419.322 419.322 419.322 419.322 419.322 419.322 419.322 419.322 419.322 419.322 419.322 419.322 419.322 419.322 419.322 419.322 419.322 419.322 419.322 419.322 419.322 419.322 419.322 419.322 419.322 419.322 419.322 419.322 419.322 419.322 419.322 419.322 419.322 419.322 419.322 419.322 419.322 419.322 419.322 419.322 419.322 419.322 419.322 419.322 419.322 419.322 419.322 419.322 419.322 419.322 419.322 419.322
392.359 392.359 392.359 392.359 392.359 392.359 392.359 392.359 392.359 392.359 392.359 392.359 392.359 392.359 392.359 392.359 392.359 392.359 392.359 392.359 392.359 392.359 392.357 392.350 392.344 392.338 392.332 392.325 392.319 392.313 392.307 392.300 392.294 392.288 392.282 392.275 392.269 392.263 392.257 392.250 392.244 392.238 392.232 392.225 392.219 392.219 392.219 392.219 392.219 392.219 392.219 392.219 392.219 392.219 392.219 392.219 392.219 392.219 392.219 392.219 392.219 392.219 392.219 392.219 392.219 392.219 392.219 392.219 392.219 392.219 392.219 392.219 392.219 392.219 392.219 392.219 392.219 392.219 392.219 392.219 392.219 392.219 392.219 392.219 392.219 392.219 392.219 392.219 392.219 392.219 392.219 392.219 392.219 392.219 392.219 392.219 392.219 392.219 392.219 392.219 392.219 392.219 392.222 392.228 392.234 392.240 392.247 392.253 392.259 392.265 392.272 392.278 392.284 392.290 392.297 392.303 392.309 392.315 392.322 392.328 392.334 392.340 392.347 392.353 -340282346638528859811704183484516925440.000 392.359 392.359 392.359 392.359 392.359 392.359 392.359 392.359 392.359 392.359 392.359 392.359 392.359 392.359 392.359 392.359 392.359 392.359 392.359 392.359 392.359 392.359 392.359 392.359 392.359 392.359 392.359 392.359 392.359 392.359 392.359 392.359 392.359 392.359 392.359 392.359 392.359 392.359 392.359 392.359 392.359 392.359 392.359 392.359 392.359 392.359 392.359 392.359 392.359 392.359 392.359 392.359 392.359 392.359 392.359 392.359 392.359 392.359 392.359 392.359 392.359 392.359 392.359 392.359 392.359 392.359 392.359 392.359 392.359 392.359 392.359 392.359 392.359 392.359 392.359 392.359 392.359 392.359 392.359 392.359 392.359 392.359 392.359 392.359 392.359 392.359 392.359 392.359 392.359 392.359 392.359 392.359 392.359 392.359 392.359 392.359 392.359 392.359 392.359 392.359 392.359 392.359 392.359 392.359 392.359 392.359 392.359 392.359 392.359 392.359 392.359 392.359 392.359 392.359 392.359 392.359 392.359 392.359 392.359 392.359 392.359 392.359 392.359 392.359 392.359 392.359 392.359 392.359 392.359 392.359 392.359 392.359 392.359 392.359 392.359 392.359 392.359 392.359 392.359 392.359 392.359 392.359 392.359 392.359 392.359 392.359 392.359 392.359 392.359 392.359 392.359 392.359 392.359 392.359 392.359 392.359 392.359 392.359 392.359 -340282346638528859811704183484516925440.000 392.353 392.347 392.340 392.334 392.328 392.322 392.315 392.309 392.303 392.297 392.290 392.284 392.278 392.272 392.265 392.259 392.253 392.247 392.240 392.234 392.228 392.222 392.219 392.219 392.219 392.219 392.219 392.219 392.219 392.219 392.219 392.219 392.219 392.219 392.219 392.219 392.219 392.219 392.219 392.219 392.219 392.219 392.219 392.219 392.219 392.219 392.219 392.219 392.219 392.219 392.219 392.219 392.219 392.219 392.219 392.219 392.219 392.219 392.219 392.219 392.219 392.219 392.219 392.219 392.219 392.219 392.219 392.219 392.219 392.219 392.219 392.219 392.219 392.219 392.219 392.219 392.219 392.219 392.219 0.000 392.225 392.232 392.238 392.244 392.250 392.257 392.263 392.269 392.275 392.282 392.288 392.294 392.300 392.307 392.313 392.319 392.325 392.332 392.338 392.344 392.350 392.357 392.359 392.359 392.359 392.359 392.359 392.359 392.359 392.359 392.359 392.359 392.359 392.359 392.359 392.359 392.359 392.359 392.359 392.359 392.359 392.359 392.359 392.359 392.359 392.359 392.359 392.359 392.359 392.359 392.359 392.359 392.359 392.359 392.359 392.359 392.359 392.359 392.359 392.359 392.359 392.359 392.359 392.359 392.359 392.359 392.359 392.359 392.359 392.359 392.359 392.359 392.359 392.359 392.359 392.359 392.359 392.359 392.359 392.359 392.359 392.359 392.359 392.359 392.359 392.359
365.396 365.396 365.396 365.396 365.396 365.396 365.396 365.396 365.396 365.396 365.396 365.396 365.396 365.396 365.396 365.396 365.396 365.396 365.396 365.396 365.396 365.396 365.396 365.396 365.391 365.385 365.379 365.372 365.366 365.360 365.354 365.347 365.341 365.335 365.329 365.322 365.316 365.310 365.304 365.297 365.291 365.285 365.278 365.272 365.266 365.266 365.266 365.266 365.266 365.266 365.266 365.266 365.266 365.266 365.266 365.266 365.266 365.266 365.266 365.266 365.266 365.266 365.266 365.266 365.266 365.266 365.266 365.266 365.266 365.266 365.266 365.266 365.266 365.266 365.266 365.266 365.266 365.266 365.266 365.266 365.266 365.266 365.266 365.266 365.266 365.266 365.266 365.266 365.266 365.266 365.266 365.266 365.266 365.266 365.266 365.266 365.266 365.266 365.266 365.266 365.266 365.266 365.266 365.266 365.271 365.278 365.284 365.290 365.296 365.303 365.309 365.315 365.321 365.328 365.334 365.340 365.346 365.353 365.359 365.365 365.371 365.378 365.384 365.390 -340282346638528859811704183484516925440.000 365.396 365.396 365.396 365.396 365.396 365.396 365.396 365.396 365.396 365.396 365.396 365.396 365.396 365.396 365.396 365.396 365.396 365.396 365.396 365.396 365.396 365.396 365.396 365.396 365.396 365.396 365.396 365.396 365.396 365.396 365.396 365.396 365.396 365.396 365.396 365.396 365.396 365.396 365.396 365.396 365.396 365.396 365.396 365.396 365.396 365.396 365.396 365.396 365.396 365.396 365.396 365.396 365.396 365.396 365.396 365.396 365.396 365.396 365.396 365.396 365.396 365.396 365.396 365.396 365.396 365.396 365.396 365.396 365.396 365.396 365.396 365.396 365.396 365.396 365.396 365.396 365.396 365.396 365.396 365.396 365.396 365.396 365.396 365.396 365.396 365.396 365.396 365.396 365.396 365.396 365.396 365.396 365.396 365.396 365.396 365.396 365.396 365.396 365.396 365.396 365.396 365.396 365.396 365.396 365.396 365.396 365.396 365.396 365.396 365.396 365.396 365.396 365.396 365.396 365.396 365.396 365.396 365.396 365.396 365.396 365.396 365.396 365.396 365.396 365.396 365.396 365.396 365.396 365.396 365.396 365.396 365.396 365.396 365.396 365.396 365.396 365.396 365.396 365.396 365.396 365.396 365.396 365.396 365.396 365.396 365.396 365.396 365.396 365.396 365.396 365.396 365.396 365.396 365.396 365.396 365.396 365.396 365.396 365.396 -340282346638528859811704183484516925440.000 365.390 365.384 365.378 365.371 365.365 365.359 365.353 365.346 365.340 365.334 365.328 365.321 365.315 365.309 365.303 365.296 365.290 365.284 365.278 365.271 365.266 365.266 365.266 365.266 365.266 365.266 365.266 365.266 365.266 365.266 365.266 365.266 365.266 365.266 365.266 365.266 365.266 365.266 365.266 365.266 365.266 365.266 365.266 365.266 365.266 365.266 365.266 365.266 365.266 365.266 365.266 365.266 365.266 365.266 365.266 365.266 365.266 365.266 365.266 365.266 365.266 365.266 365.266 365.266 365.266 365.266 365.266 365.266 365.266 365.266 365.266 365.266 365.266 365.266 365.266 365.266 365.266 365.266 365.266 0.000 365.272 365.278 365.285 365.291 365.297 365.304 365.310 365.316 365.322 365.329 365.335 365.341 365.347 365.354 365.360 365.366 365.372 365.379 365.385 365.391 365.396 365.396 365.396 365.396 365.396 365.396 365.396 365.396 365.396 365.396 365.396 365.396 365.396 365.396 365.396 365.396 365.396 365.396 365.396 365.396 365.396 365.396 365.396 365.396 365.396 365.396 365.396 365.396 365.396 365.396 365.396 365.396 365.396 365.396 365.396 365.396 365.396 365.396 365.396 365.396 365.396 365.396 365.396 365.396 365.396 365.396 365.396 365.396 365.396 365.396 365.396 365.396 365.396 365.396 365.396 365.396 365.396 365.396 365.396 365.396 365.396 365.396 365.396 365.396 365.396 365.396
338.434 338.434 338.434 338.434 338.434 338.434 338.434 338.434 338.434 338.434 338.434 338.434 338.434 338.434 338.434 338.434 338.434 338.434 338.434 338.434 338.434 338.434 338.434 338.434 338.434 338.432 338.426 338.419 338.413 338.407 338.401 338.394 338.388 338.382 338.375 338.369 338.363 338.357 338.350 338.344 338.338 338.332 338.325 338.319 338.313 338.313 338.313 338.313 338.313 338.313 338.313 338.313 338.313 338.313 338.313 338.313 338.313 338.313 338.313 338.313 338.313 338.313 338.313 338.313 338.313 338.313 338.313 338.313 338.313 338.313 338.313 338.313 338.313 338.313 338.313 338.313 338.313 338.313 338.313 338.313 338.313 338.313 338.313 338.313 338.313 338.313 338.313 338.313 338.313 338.313 338.313 338.313 338.313 338.313 338.313 338.313 338.313 338.313 338.313 338.313 338.313 338.313 338.313 338.313 338.313 338.315 338.321 338.328 338.334 338.340 338.346 338.353 338.359 338.365 338.371 338.378 338.384 338.390 338.396 338.403 338.409 338.415 338.421 338.428 -340282346638528859811704183484516925440.000 338.434 338.434 338.434 338.434 338.434 338.434 338.434 338.434 338.434 338.434 338.434 338.434 338.434 338.434 338.434 338.434 338.434 338.434 338.434 338.434 338.434 338.434 338.434 338.434 338.434 338.434 338.434 338.434 338.434 338.434 338.434 338.434 338.434 338.434 338.434 338.434 338.434 338.434 338.434 338.434 338.434 338.434 338.434 338.434 338.434 338.434 338.434 338.434 338.434 338.434 338.434 338.434 338.434 338.434 338.434 338.434 338.434 338.434 338.434 338.434 338.434 338.434 338.434 338.434 338.434 338.434 338.434 338.434 338.434 338.434 338.434 338.434 338.434 338.434 338.434 338.434 338.434 338.434 338.434 338.434 338.434 338.434 338.434 338.434 338.434 338.434 338.434 338.434 338.434 338.434 338.434 338.434 338.434 338.434 338.434 338.434 338.434 338.434 338.434 338.434 338.434 338.434 338.434 338.434 338.434 338.434 338.434 338.434 338.434 338.434 338.434 338.434 338.434 338.434 338.434 338.434 338.434 338.434 338.434 338.434 338.434 338.434 338.434 338.434 338.434 338.434 338.434 338.434 338.434 338.434 338.434 338.434 338.434 338.434 338.434 338.434 338.434 338.434 338.434 338.434 338.434 338.434 338.434 338.434 338.434 338.434 338.434 338.434 338.434 338.434 338.434 338.434 338.434 338.434 338.434 338.434 338.434 338.434 338.434 -340282346638528859811704183484516925440.000 338.428 338.421 338.415 338.409 338.403 338.396 338.390 338.384 338.378 338.371 338.365 338.359 338.353 338.346 338.340 338.334 338.328 338.321 338.315 338.313 338.313 338.313 338.313 338.313 338.313 338.313 338.313 338.313 338.313 338.313 338.313 338.313 338.313 338.313 338.313 338.313 338.313 338.313 338.313 338.313 338.313 338.313 338.313 338.313 338.313 338.313 338.313 338.313 338.313 338.313 338.313 338.313 338.313 338.313 338.313 338.313 338.313 338.313 338.313 338.313 338.313 338.313 338.313 338.313 338.313 338.313 338.313 338.313 338.313 338.313 338.313 338.313 338.313 338.313 338.313 338.313 338.313 338.313 338.313 0.000 338.319 338.325 338.332 338.338 338.344 338.350 338.357 338.363 338.369 338.375 338.382 338.388 338.394 338.401 338.407 338.413 338.419 338.426 338.432 338.434 338.434 338.434 338.434 338.434 338.434 338.434 338.434 338.434 338.434 338.434 338.434 338.434 338.434 338.434 338.434 338.434 338.434 338.434 338.434 338.434 338.434 338.434 338.434 338.434 338.434 338.434 338.434 338.434 338.434 338.434 338.434 338.434 338.434 338.434 338.434 338.434 338.434 338.434 338.434 338.434 338.434 338.434 338.434 338.434 338.434 338.434 338.434 338.434 338.434 338.434 338.434 338.434 338.434 338.434 338.434 338.434 338.434 338.434 338.434 338.434 338.434 338.434 338.434 338.434 338.434 338.434
311.471 311.471 311.471 311.471 311.471 311.471 311.471 311.471 311.471 311.471 311.471 311.471 311.471 311.471 311.471 311.471 311.471 311.471 311.471 311.471 311.471 311.471 311.471 311.471 311.471 311.471 311.471 311.466 311.460 311.454 311.447 311.441 311.435 311.429 311.422 311.416 311.410 311.404 311.397 311.391 311.385 311.379 311.372 311.366 311.360 311.360 311.360 311.360 311.360 311.360 311.360 311.360 311.360 311.360 311.360 311.360 311.360 311.360 311.360 311.360 311.360 311.360 311.360 311.360 311.360 311.360 311.360 311.360 311.360 311.360 311.360 311.360 311.360 311.360 311.360 311.360 311.360 311.360 311.360 311.360 311.360 311.360 311.360 311.360 311.360 311.360 311.360 311.360 311.360 311.360 311.360 311.360 311.360 311.360 311.360 311.360 311.360 311.360 311.360 311.360 311.360 311.360 311.360 311.360 311.360 311.360 311.360 311.365 311.371 311.377 311.384 311.390 311.396 311.402 311.409 311.415 311.421 311.427 311.434 311.440 311.446 311.452 311.459 311.465 -340282346638528859811704183484516925440.000 311.471 311.471 311.471 311.471 311.471 311.471 311.471 311.471 311.471 311.471 311.471 311.471 311.471 311.471 311.471 311.471 311.471 311.471 311.471 311.471 311.471 311.471 311.471 311.471 311.471 311.471 311.471 311.471 311.471 311.471 311.471 311.471 311.471 311.471 311.471 311.471 311.471 311.471 311.471 311.471 311.471 311.471 311.471 311.471 311.471 311.471 311.471 311.471 311.471 311.471 311.471 311.471 311.471 311.471 311.471 311.471 311.471 311.471 311.471 311.471 311.471 311.471 311.471 311.471 311.471 311.471 311.471 311.471 311.471 311.471 311.471 311.471 311.471 311.471 311.471 311.471 311.471 311.471 311.471 311.471 311.471 311.471 311.471 311.471 311.471 311.471 311.471 311.471 311.471 311.471 311.471 311.471 311.471 311.471 311.471 311.471 311.471 311.471 311.471 311.471 311.471 311.471 311.471 311.471 311.471 311.471 311.471 311.471 311.471 311.471 311.471 311.471 311.471 311.471 311.471 311.471 311.471 311.471 311.471 311.471 311.471 311.471 311.471 311.471 311.471 311.471 311.471 311.471 311.471 311.471 311.471 311.471 311.471 311.471 311.471 311.471 311.471 311.471 311.471 311.471 311.471 311.471 311.471 311.471 311.471 311.471 311.471 311.471 311.471 311.471 311.471 311.471 311.471 311.471 311.471 311.471 311.471 311.471 311.471 -340282346638528859811704183484516925440.000 311.465 311.459 311.452 311.446 311.440 311.434 311.427 311.421 311.415 311.409 311.402 311.396 311.390 311.384 311.377 311.371 311.365 311.360 311.360 311.360 311.360 311.360 311.360 311.360 311.360 311.360 311.360 311.360 311.360 311.360 311.360 311.360 311.360 311.360 311.360 311.360 311.360 311.360 311.360 311.360 311.360 311.360 311.360 311.360 311.360 311.360 311.360 311.360 311.360 311.360 311.360 311.360 311.360 311.360 311.360 311.360 311.360 311.360 311.360 311.360 311.360 311.360 311.360 311.360 311.360 311.360 311.360 311.360 311.360 311.360 311.360 311.360 311.360 311.360 311.360 311.360 311.360 311.360 311.360 0.000 311.366 311.372 311.379 311.385 311.391 311.397 311.404 311.410 311.416 311.422 311.429 311.435 311.441 311.447 311.454 311.460 311.466 311.471 311.471 311.471 311.471 311.471 311.471 311.471 311.471 311.471 311.471 311.471 311.471 311.471 311.471 311.471 311.471 311.471 311.471 311.471 311.471 311.471 311.471 311.471 311.471 311.471 311.471 311.471 311.471 311.471 311.471 311.471 311.471 311.471 311.471 311.471 311.471 311.471 311.471 311.471 311.471 311.471 311.471 311.471 311.471 311.471 311.471 311.471 311.471 311.471 311.471 311.471 311.471 311.471 311.471 311.471 311.471 311.471 311.471 311.471 311.471 311.471 311.471 311.471 311.471 311.471 311.471 311.471 311.471 311.471
284.509 284.509 284.509 284.509 284.509 284.509 284.509 284.509 284.509 284.509 284.509 284.509 284.509 284.509 284.509 284.509 284.509 284.509 284.509 284.509 284.509 284.509 284.509 284.509 284.509 284.509 284.509 284.509 284.507 284.501 284.494 284.488 284.482 284.476 284.469 284.463 284.457 284.451 284.444 284.438 284.432 284.426 284.419 284.413 284.407 284.407 284.407 284.407 284.407 284.407 284.407 284.407 284.407 284.407 284.407 284.407 284.407 284.407 284.407 284.407 284.407 284.407 284.407 284.407 284.407 284.407 284.407 284.407 284.407 284.407 284.407 284.407 284.407 284.407 284.407 284.407 284.407 284.407 284.407 284.407 284.407 284.407 284.407 284.407 284.407 284.407 284.407 284.407 284.407 284.407 284.407 284.407 284.407 284.407 284.407 284.407 284.407 284.407 284.407 284.407 284.407 284.407 284.407 284.407 284.407 284.407 284.407 284.407 284.409 284.415 284.421 284.427 284.434 284.440 284.446 284.452 284.459 284.465 284.471 284.477 284.484 284.490 284.496 284.502 -340282346638528859811704183484516925440.000 284.509 284.509 284.509 284.509 284.509 284.509 284.509 284.509 284.509 284.509 284.509 284.509 284.509 284.509 284.509 284.509 284.509 284.509 284.509 284.509 284.509 284.509 284.509 284.509 284.509 284.509 284.509 284.509 284.509 284.509 284.509 284.509 284.509 284.509 284.509 284.509 284.509 284.509 284.509 284.509 284.509 284.509 284.509 284.509 284.509 284.509 284.509 284.509 284.509 284.509 284.509 284.509 284.509 284.509 284.509 284.509 284.509 284.509 284.509 284.509 284.509 284.509 284.509 284.509 284.509 284.509 284.509 284.509 284.509 284.509 284.509 284.509 284.509 284.509 284.509 284.509 284.509 284.509 284.509 284.509 284.509 284.509 284.509 284.509 284.509 284.509 284.509 284.509 284.509 284.509 284.509 284.509 284.509 284.509 284.509 284.509 284.509 284.509 284.509 284.509 284.509 284.509 284.509 284.509 284.509 284.509 284.509 284.509 284.509 284.509 284.509 284.509 284.509 284.509 284.509 284.509 284.509 284.509 284.509 284.509 284.509 284.509 284.509 284.509 284.509 284.509 284.509 284.509 284.509 284.509 284.509 284.509 284.509 284.509 284.509 284.509 284.509 284.509 284.509 284.509 284.509 284.509 284.509 284.509 284.509 284.509 284.509 284.509 284.509 284.509 284.509 284.509 284.509 284.509 284.509 284.509 284.509 284.509 284.509 -340282346638528859811704183484516925440.000 284.502 284.496 284.490 284.484 284.477 284.471 284.465 284.459 284.452 284.446 284.440 284.434 284.427 284.421 284.415 284.409 284.407 284.407 284.407 284.407 284.407 284.407 284.407 284.407 284.407 284.407 284.407 284.407 284.407 284.407 284.407 284.407 284.407 284.407 284.407 284.407 284.407 284.407 284.407 284.407 284.407 284.407 284.407 284.407 284.407 284.407 284.407 284.407 284.407 284.407 284.407 284.407 284.407 284.407 284.407 284.407 284.407 284.407 284.407 284.407 284.407 284.407 284.407 284.407 284.407 284.407 284.407 284.407 284.407 284.407 284.407 284.407 284.407 284.407 284.407 284.407 284.407 284.407 284.407 0.000 284.413 284.419 284.426 284.432 284.438 284.444 284.451 284.457 284.463 284.469 284.476 284.482 284.488 284.494 284.501 284.507 284.509 284.509 284.509 284.509 284.509 284.509 284.509 284.509 284.509 284.509 284.509 284.509 284.509 284.509 284.509 284.509 284.509 284.509 284.509 284.509 284.509 284.509 284.509 284.509 284.509 284.509 284.509 284.509 284.509 284.509 284.509 284.509 284.509 284.509 284.509 284.509 284.509 284.509 284.509 284.509 284.509 284.509 284.509 284.509 284.509 284.509 284.509 284.509 284.509 284.509 284.509 284.509 284.509 284.509 284.509 284.509 284.509 284.509 284.509 284.509 284.509 284.509 284.509 284.509 284.509 284.509 284.509 284.509 284.509 284.509
257.546 257.546 257.546 257.546 257.546 257.546 257.546 257.546 257.546 257.546 257.546 257.546 257.546 257.546 257.546 257.546 257.546 257.546 257.546 257.546 257.546 257.546 257.546 257.546 257.546 257.546 257.546 257.546 257.546 257.546 257.541 257.535 257.529 257.523 257.516 257.510 257.504 257.498 257.491 257.485 257.479 257.473 257.466 257.460 257.454 257.454 257.454 257.454 257.454 257.454 257.454 257.454 257.454 257.454 257.454 257.454 257.454 257.454 257.454 257.454 257.454 257.454 257.454 257.454 257.454 257.454 257.454 257.454 257.454 257.454 257.454 257.454 257.454 257.454 257.454 257.454 257.454 257.454 257.454 257.454 257.454 257.454 257.454 257.454 257.454 257.454 257.454 257.454 257.454 257.454 257.454 257.454 257.454 257.454 257.454 257.454 257.454 257.454 257.454 257.454 257.454 257.454 257.454 257.454 257.454 257.454 257.454 257.454 257.454 257.454 257.458 257.465 257.471 257.477 257.483 257.490 257.496 257.502 257.508 257.515 257.521 257.527 257.533 257.540 -340282346638528859811704183484516925440.000 257.546 257.546 257.546 257.546 257.546 257.546 257.546 257.546 257.546 257.546 257.546 257.546 257.546 257.546 257.546 257.546 257.546 257.546 257.546 257.546 257.546 257.546 257.546 257.546 257.546 257.546 257.546 257.546 257.546 257.546 257.546 257.546 257.546 257.546 257.546 257.546 257.546 257.546 257.546 257.546 257.546 257.546 257.546 257.546 257.546 257.546 257.546 257.546 257.546 257.546 257.546 257.546 257.546 257.546 257.546 257.546 257.546 257.546 257.546 257.546 257.546 257.546 257.546 257.546 257.546 257.546 257.546 257.546 257.546 257.546 257.546 257.546 257.546 257.546 257.546 257.546 257.546 257.546 257.546 257.546 257.546 257.546 257.546 257.546 257.546 257.546 257.546 257.546 257.546 257.546 257.546 257.546 257.546 257.546 257.546 257.546 257.546 257.546 257.546 257.546 257.546 257.546 257.546 257.546 257.546 257.546 257.546 257.546 257.546 257.546 257.546 257.546 257.546 257.546 257.546 257.546 257.546 257.546 257.546 257.546 257.546 257.546 257.546 257.546 257.546 257.546 257.546 257.546 257.546 257.546 257.546 257.546 257.546 257.546 257.546 257.546 257.546 257.546 257.546 257.546 257.546 257.546 257.546 257.546 257.546 257.546 257.546 257.546 257.546 257.546 257.546 257.546 257.546 257.546 257.546 257.546 257.546 257.546 257.546 -340282346638528859811704183484516925440.000 257.540 257.533 257.527 257.521 257.515 257.508 257.502 257.496 257.490 257.483 257.477 257.471 257.465 257.458 257.454 257.454 257.454 257.454 257.454 257.454 257.454 257.454 257.454 257.454 257.454 257.454 257.454 257.454 257.454 257.454 257.454 257.454 257.454 257.454 257.454 257.454 257.454 257.454 257.454 257.454 257.454 257.454 257.454 257.454 257.454 257.454 257.454 257.454 257.454 257.454 257.454 257.454 257.454 257.454 257.454 257.454 257.454 257.454 257.454 257.454 257.454 257.454 257.454 257.454 257.454 257.454 257.454 257.454 257.454 257.454 257.454 257.454 257.454 257.454 257.454 257.454 257.454 257.454 257.454 0.000 257.460 257.466 257.473 257.479 257.485 257.491 257.498 257.504 257.510 257.516 257.523 257.529 257.535 257.541 257.546 257.546 257.546 257.546 257.546 257.546 257.546 257.546 257.546 257.546 257.546 257.546 257.546 257.546 257.546 257.546 257.546 257.546 257.546 257.546 257.546 257.546 257.546 257.546 257.546 257.546 257.546 257.546 257.546 257.546 257.546 257.546 257.546 257.546 257.546 257.546 257.546 257.546 257.546 257.546 257.546 257.546 257.546 257.546 257.546 257.546 257.546 257.546 257.546 257.546 257.546 257.546 257.546 257.546 257.546 257.546 257.546 257.546 257.546 257.546 257.546 257.546 257.546 257.546 257.546 257.546 257.546 257.546 257.546 257.546 257.546 257.546
230.583 230.583 230.583 230.583 230.583 230.583 230.583 230.583 230.583 230.583 230.583 230.583 230.583 230.583 230.583 230.583 230.583 230.583 230.583 230.583 230.583 230.583 230.583 230.583 230.583 230.583 230.583 230.583 230.583 230.583 230.583 230.582 230.576 230.570 230.563 230.557 230.551 230.545 230.538 230.532 230.526 230.520 230.513 230.507 230.501 230.501 230.501 230.501 230.501 230.501 230.501 230.501 230.501 230.501 230.501 230.501 230.501 230.501 230.501 230.501 230.501 230.501 230.501 230.501 230.501 230.501 230.501 230.501 230.501 230.501 230.501 230.501 230.501 230.501 230.501 230.501 230.501 230.501 230.501 230.501 230.501 230.501 230.501 230.501 230.501 230.501 230.501 230.501 230.501 230.501 230.501 230.501 230.501 230.501 230.501 230.501 230.501 230.501 230.501 230.501 230.501 230.501 230.501 230.501 230.501 230.501 230.501 230.501 230.501 230.501 230.501 230.502 230.508 230.514 230.521 230.527 230.533 230.539 230.546 230.552 230.558 230.565 230.571 230.577 -340282346638528859811704183484516925440.000 230.583 230.583 230.583 230.583 230.583 230.583 230.583 230.583 230.583 230.583 230.583 230.583 230.583 230.583 230.583 230.583 230.583 230.583 230.583 230.583 230.583 230.583 230.583 230.583 230.583 230.583 230.583 230.583 230.583 230.583 230.583 230.583 230.583 230.583 230.583 230.583 230.583 230.583 230.583 230.583 230.583 230.583 230.583 230.583 230.583 230.583 230.583 230.583 230.583 230.583 230.583 230.583 230.583 230.583 230.583 230.583 230.583 230.583 230.583 230.583 230.583 230.583 230.583 230.583 230.583 230.583 230.583 230.583 230.583 230.583 230.583 230.583 230.583 230.583 230.583 230.583 230.583 230.583 230.583 230.583 230.583 230.583 230.583 230.583 230.583 230.583 230.583 230.583 230.583 230.583 230.583 230.583 230.583 230.583 230.583 230.583 230.583 230.583 230.583 230.583 230.583 230.583 230.583 230.583 230.583 230.583 230.583 230.583 230.583 230.583 230.583 230.583 230.583 230.583 230.583 230.583 230.583 230.583 230.583 230.583 230.583 230.583 230.583 230.583 230.583 230.583 230.583 230.583 230.583 230.583 230.583 230.583 230.583 230.583 230.583 230.583 230.583 230.583 230.583 230.583 230.583 230.583 230.583 230.583 230.583 230.583 230.583 230.583 230.583 230.583 230.583 230.583 230.583 230.583 230.583 230.583 230.583 230.583 230.583 -340282346638528859811704183484516925440.000 230.577 230.571 230.565 230.558 230.552 230.546 230.539 230.533 230.527 230.521 230.514 230.508 230.502 230.501 230.501 230.501 230.501 230.501 230.501 230.501 230.501 230.501 230.501 230.501 230.501 230.501 230.501 230.501 230.501 230.501 230.501 230.501 230.501 230.501 230.501 230.501 230.501 230.501 230.501 230.501 230.501 230.501 230.501 230.501 230.501 230.501 230.501 230.501 230.501 230.501 230.501 230.501 230.501 230.501 230.501 230.501 230.501 230.501 230.501 230.501 230.501 230.501 230.501 230.501 230.501 230.501 230.501 230.501 230.501 230.501 230.501 230.501 230.501 230.501 230.501 230.501 230.501 230.501 230.501 0.000 230.507 230.513 230.520 230.526 230.532 230.538 230.545 230.551 230.557 230.563 230.570 230.576 230.582 230.583 230.583 230.583 230.583 230.583 230.583 230.583 230.583 230.583 230.583 230.583 230.583 230.583 230.583 230.583 230.583 230.583 230.583 230.583 230.583 230.583 230.583 230.583 230.583 230.583 230.583 230.583 230.583 230.583 230.583 230.583 230.583 230.583 230.583 230.583 230.583 230.583 230.583 230.583 230.583 230.583 230.583 230.583 230.583 230.583 230.583 230.583 230.583 230.583 230.583 230.583 230.583 230.583 230.583 230.583 230.583 230.583 230.583 230.583 230.583 230.583 230.583 230.583 230.583 230.583 230.583 230.583 230.583 230.583 230.583 230.583 230.583 230.583
203.621 203.621 203.621 203.621 203.621 203.621 203.621 203.621 203.621 203.621 203.621 203.621 203.621 203.621 203.621 203.621 203.621 203.621 203.621 203.621 203.621 203.621 203.621 203.621 203.621 203.621 203.621 203.621 203.621 203.621 203.621 203.621 203.621 203.617 203.610 203.604 203.598 203.592 203.585 203.579 203.573 203.567 203.560 203.554 203.548 203.548 203.548 203.548 203.548 203.548 203.548 203.548 203.548 203.548 203.548 203.548 203.548 203.548 203.548 203.548 203.548 203.548 203.548 203.548 203.548 203.548 203.548 203.548 203.548 203.548 203.548 203.548 203.548 203.548 203.548 203.548 203.548 203.548 203.548 203.548 203.548 203.548 203.548 203.548 203.548 203.548 203.548 203.548 203.548 203.548 203.548 203.548 203.548 203.548 203.548 203.548 203.548 203.548 203.548 203.548 203.548 203.548 203.548 203.548 203.548 203.548 203.548 203.548 203.548 203.548 203.548 203.548 203.548 203.552 203.558 203.564 203.571 203.577 203.583 203.589 203.596 203.602 203.608 203.614 -340282346638528859811704183484516925440.000 203.621 203.621 203.621 203.621 203.621 203.621 203.621 203.621 203.621 203.621 203.621 203.621 203.621 203.621 203.621 203.621 203.621 203.621 203.621 203.621 203.621 203.621 203.621 203.621 203.621 203.621 203.621 203.621 203.621 203.621 203.621 203.621 203.621 203.621 203.621 203.621 203.621 203.621 203.621 203.621 203.621 203.621 203.621 203.621 203.621 203.621 203.621 203.621 203.621 203.621 203.621 203.621 203.621 203.621 203.621 203.621 203.621 203.621 203.621 203.621 203.621 203.621 203.621 203.621 203.621 203.621 203.621 203.621 203.621 203.621 203.621 203.621 203.621 203.621 203.621 203.621 203.621 203.621 203.621 203.621 203.621 203.621 203.621 203.621 203.621 203.621 203.621 203.621 203.621 203.621 203.621 203.621 203.621 203.621 203.621 203.621 203.621 203.621 203.621 203.621 203.621 203.621 203.621 203.621 203.621 203.621 203.621 203.621 203.621 203.621 203.621 203.621 203.621 203.621 203.621 203.621 203.621 203.621 203.621 203.621 203.621 203.621 203.621 203.621 203.621 203.621 203.621 203.621 203.621 203.621 203.621 203.621 203.621 203.621 203.621 203.621 203.621 203.621 203.621 203.621 203.621 203.621 203.621 203.621 203.621 203.621 203.621 203.621 203.621 203.621 203.621 203.621 203.621 203.621 203.621 203.621 203.621 203.621 203.621 -340282346638528859811704183484516925440.000 203.614 203.608 203.602 203.596 203.589 203.583 203.577 203.571 203.564 203.558 203.552 203.548 203.548 203.548 203.548 203.548 203.548 203.548 203.548 203.548 203.548 203.548 203.548 203.548 203.548 203.548 203.548 203.548 203.548 203.548 203.548 203.548 203.548 203.548 203.548 203.548 203.548 203.548 203.548 203.548 203.548 203.548 203.548 203.548 203.548 203.548 203.548 203.548 203.548 203.548 203.548 203.548 203.548 203.548 203.548 203.548 203.548 203.548 203.548 203.548 203.548 203.548 203.548 203.548 203.548 203.548 203.548 203.548 203.548 203.548 203.548 203.548 203.548 203.548 203.548 203.548 203.548 203.548 203.548 0.000 203.554 203.560 203.567 203.573 203.579 203.585 203.592 203.598 203.604 203.610 203.617 203.621 203.621 203.621 203.621 203.621 203.621 203.621 203.621 203.621 203.621 203.621 203.621 203.621 203.621 203.621 203.621 203.621 203.621 203.621 203.621 203.621 203.621 203.621 203.621 203.621 203.621 203.621 203.621 203.621 203.621 203.621 203.621 203.621 203.621 203.621 203.621 203.621 203.621 203.621 203.621 203.621 203.621 203.621 203.621 203.621 203.621 203.621 203.621 203.621 203.621 203.621 203.621 203.621 203.621 203.621 203.621 203.621 203.621 203.621 203.621 203.621 203.621 203.621 203.621 203.621 203.621 203.621 203.621 203.621 203.621 203.621 203.621 203.621 203.621 203.621
176.658 176.658 176.658 176.658 176.658 176.658 176.658 176.658 176.658 176.658 176.658 176.658 176.658 176.658 176.658 176.658 176.658 176.658 176.658 176.658 176.658 176.658 176.658 176.658 176.658 176.658 176.658 176.658 176.658 176.658 176.658 176.658 176.658 176.658 176.657 176.651 176.645 176.639 176.632 176.626 176.620 176.614 176.607 176.601 176.595 176.595 176.595 176.595 176.595 176.595 176.595 176.595 176.595 176.595 176.595 176.595 176.595 176.595 176.595 176.595 176.595 176.595 176.595 176.595 176.595 176.595 176.595 176.595 176.595 176.595 176.595 176.595 176.595 176.595 176.595 176.595 176.595 176.595 176.595 176.595 176.595 176.595 176.595 176.595 176.595 176.595 176.595 176.595 176.595 176.595 176.595 176.595 176.595 176.595 176.595 176.595 176.595 176.595 176.595 176.595 176.595 176.595 176.595 176.595 176.595 176.595 176.595 176.595 176.595 176.595 176.595 176.595 176.595 176.595 176.595 176.602 176.608 176.614 176.620 176.627 176.633 176.639 176.645 176.652 -340282346638528859811704183484516925440.000 176.658 176.658 176.658 176.658 176.658 176.658 176.658 176.658 176.658 176.658 176.658 176.658 176.658 176.658 176.658 176.658 176.658 176.658 176.658 176.658 176.658 176.658 176.658 176.658 176.658 176.658 176.658 176.658 176.658 176.658 176.658 176.658 176.658 176.658 176.658 176.658 176.658 176.658 176.658 176.658 176.658 176.658 176.658 176.658 176.658 176.658 176.658 176.658 176.658 176.658 176.658 176.658 176.658 176.658 176.658 176.658 176.658 176.658 176.658 176.658 176.658 176.658 176.658 176.658 176.658 176.658 176.658 176.658 176.658 176.658 176.658 176.658 176.658 176.658 176.658 176.658 176.658 176.658 176.658 176.658 176.658 176.658 176.658 176.658 176.658 176.658 176.658 176.658 176.658 176.658 176.658 176.658 176.658 176.658 176.658 176.658 176.658 176.658 176.658 176.658 176.658 176.658 176.658 176.658 176.658 176.658 176.658 176.658 176.658 176.658 176.658 176.658 176.658 176.658 176.658 176.658 176.658 176.658 176.658 176.658 176.658 176.658 176.658 176.658 176.658 176.658 176.658 176.658 176.658 176.658 176.658 176.658 176.658 176.658 176.658 176.658 176.658 176.658 176.658 176.658 176.658 176.658 176.658 176.658 176.658 176.658 176.658 176.658 176.658 176.658 176.658 176.658 176.658 176.658 176.658 176.658 176.658 176.658 176.658 -340282346638528859811704183484516925440.000 176.652 176.645 176.639 176.633 176.627 176.620 176.614 176.608 176.602 176.595 176.595 176.595 176.595 176.595 176.595 176.595 176.595 176.595 176.595 176.595 176.595 176.595 176.595 176.595 176.595 176.595 176.595 176.595 176.595 176.595 176.595 176.595 176.595 176.595 176.595 176.595 176.595 176.595 176.595 176.595 176.595 176.595 176.595 176.595 176.595 176.595 176.595 176.595 176.595 176.595 176.595 176.595 176.595 176.595 176.595 176.595 176.595 176.595 176.595 176.595 176.595 176.595 176.595 176.595 176.595 176.595 176.595 176.595 176.595 176.595 176.595 176.595 176.595 176.595 176.595 176.595 176.595 176.595 176.595 0.000 176.601 176.607 176.614 176.620 176.626 176.632 176.639 176.645 176.651 176.657 176.658 176.658 176.658 176.658 176.658 176.658 176.658 176.658 176.658 176.658 176.658 176.658 176.658 176.658 176.658 176.658 176.658 176.658 176.658 176.658 176.658 176.658 176.658 176.658 176.658 176.658 176.658 176.658 176.658 176.658 176.658 176.658 176.658 176.658 176.658 176.658 176.658 176.658 176.658 176.658 176.658 176.658 176.658 176.658 176.658 176.658 176.658 176.658 176.658 176.658 176.658 176.658 176.658 176.658 176.658 176.658 176.658 176.658 176.658 176.658 176.658 176.658 176.658 176.658 176.658 176.658 176.658 176.658 176.658 176.658 176.658 176.658 176.658 176.658 176.658 176.658
